-0.275375 0.250000 -0.655090
-1.123650 -0.269669 0.395739
-0.750845 1.114422 -0.750000
-0.858172 -0.181642 -0.088406
-0.945499 -0.542921 0.302971
-0.760481 -0.795772 0.235631
-0.796996 -0.357566 0.613014
-0.546102 0.250000 -0.390863
-0.500000 0.142699 -0.494682
-0.530666 -0.815459 0.082334
0.250000 1.035691 0.489304
0.250000 -0.125086 0.363313
0.042733 -0.430933 -0.250000
-0.803128 -0.195118 -0.110408
-0.858400 0.846044 0.250000
-0.318727 1.212252 -0.750000
-0.428830 -0.816988 0.461924
-1.000000 0.935081 -0.573108
-0.843277 -0.111190 -0.134733
0.250000 -0.238319 0.504389
-0.462267 0.198094 0.941430
-0.573304 -0.961193 0.252250
-0.476982 -0.866201 0.342811
-0.111186 -0.500000 0.460616
0.064743 -0.500000 0.344240
-0.676780 -0.864314 0.248155
-0.798128 -0.683766 0.153171
-0.523880 -0.628606 0.609445
-0.880934 0.250000 -0.326498
-0.089862 -0.500000 0.403421
0.245643 1.309734 -0.250000
-0.254958 -0.639288 0.641318
-0.671861 1.066173 -0.750000
-0.278819 -0.663675 -0.086185
-0.807322 -0.208588 0.743230
-0.905412 0.250000 -0.659807
-0.302240 0.664968 -0.750000
-0.228421 -0.612168 0.380274
-0.702980 0.342290 0.768625
-0.484215 -0.500000 -0.142611
0.227007 -0.292346 -0.250000
-0.729442 0.447487 -0.750000
0.074471 0.000000 -0.452569
0.250000 -0.107080 -0.037969
-0.536365 0.743516 0.750000
-0.539243 -0.783491 0.450122
0.060300 -0.092914 -0.250000
-0.695844 1.250000 -0.386209
-0.681185 0.715420 0.750000
-0.340879 -0.223837 -0.250000
-1.000000 0.781263 -0.609246
-1.000000 0.770919 -0.419644
-1.239936 -0.313364 0.248080
0.433695 0.165261 -0.500000
-1.115670 -0.314778 0.360763
-0.750000 0.380565 0.374780
-0.791968 0.833636 -0.750000
-1.047412 -0.009727 0.060057
-1.150431 -0.183831 0.068599
-0.781286 1.005646 0.250000
0.231397 -0.500000 0.341249
-0.947020 -0.542276 0.302179
-0.780963 0.266501 -0.750000
-0.043127 0.000000 -0.362476
-0.923530 -0.630729 0.240793
0.696426 0.250000 0.045408
-0.224309 0.828158 -0.750000
-0.750000 0.451860 0.489267
-0.913108 0.122668 -0.186652
-1.005493 -0.425202 0.122840
-0.088992 0.210411 -0.500000
-1.000000 0.787702 -0.590205
-0.978675 -0.588699 0.197627
-0.750000 0.793243 0.420616
-0.614842 -0.792545 0.114726
-0.450570 -0.197355 1.081061
-1.000000 0.705863 -0.590209
-1.234937 -0.217181 0.131822
0.042470 1.250000 -0.411710
-0.695880 -0.325559 -0.250000
-0.281060 -0.521889 0.932283
-0.959402 1.250000 -0.378245
-1.000000 0.791084 -0.503584
-1.000000 0.659881 -0.541152
-0.893027 0.148057 0.411290
-0.218648 1.250000 -0.620240
-0.175303 0.240335 -0.500000
-1.000000 0.501000 -0.229631
-0.956228 -0.407783 0.087086
-0.538304 -0.126381 -0.250000
-1.000000 1.045857 -0.080567
-0.282049 -0.666976 -0.001514
-0.480800 -0.751501 0.533735
-0.035089 -0.500000 0.232247
-0.902803 -0.047231 -0.137847
0.250000 -0.484495 0.036430
-0.688641 0.037119 1.082496
-0.914433 0.126180 0.692392
-0.789658 0.250000 -0.280534
0.402907 1.250000 -0.430268
-0.606282 -0.753469 0.416767
1.000000 0.582687 -0.270714
-0.772282 0.684824 -0.750000
-0.331156 1.250000 -0.354642
-0.750000 -0.487325 -0.096604
-0.367418 0.000000 -0.378882
0.250000 -0.391141 -0.039355
-1.033129 0.004870 0.014323
1.000000 0.365038 -0.238345
-1.159459 -0.213634 0.415423
-0.988999 -0.292225 0.041594
-0.470027 0.000000 -0.462323
-1.000000 1.131043 -0.413795
-0.483244 -0.743699 0.017954
0.250000 -0.417520 -0.030968
-0.772415 -0.308256 -0.065138
-0.914215 0.780145 0.250000
0.226326 -0.500000 -0.182275
-0.750000 0.595580 0.514278
-1.000000 0.355091 -0.594838
-0.873881 0.167625 0.712218
-0.467239 0.862292 -0.750000
-0.926151 -0.661599 0.209442
-0.921562 -0.479968 0.107936
-0.927002 -0.518795 0.342562
0.500000 0.155621 -0.329050
-1.000000 0.924974 0.002766
-0.511344 -0.901319 0.246303
0.476982 0.250000 -0.575125
-0.949714 -0.190850 0.629222
-1.286830 -0.254418 0.200295
0.640334 0.554438 -0.750000
-0.137523 -0.003642 -0.250000
-1.000000 0.374944 0.210007
-0.690829 -0.588197 0.494167
-0.978765 -0.537988 0.277075
-0.739983 0.417396 -0.750000
-0.750000 1.442233 0.053906
-0.506477 -0.623370 -0.035223
-1.000000 0.317653 0.242738
0.107504 0.250000 -0.595200
-0.320658 -0.706435 0.118362
-0.944155 -0.215209 0.611482
0.023515 0.753747 -0.750000
-0.750000 -0.496925 -0.249937
-1.000000 0.584180 -0.555983
0.242180 -0.115822 -0.250000
-0.030732 1.250000 -0.730785
-0.500000 0.115480 -0.441036
-0.641638 -0.079924 -0.250000
-0.308099 -0.000052 -0.250000
0.112424 -0.263819 0.886698
-0.377866 -0.533446 0.832631
0.895760 0.250000 -0.635122
-0.215700 1.500000 0.628175
0.371801 0.250000 -0.597606
-0.811067 -0.683754 0.160062
-0.011517 -0.480481 0.750000
1.000000 0.472437 -0.055703
-0.586795 -0.875079 0.320617
-0.524408 -0.670832 0.000197
-0.750000 -0.422026 -0.087862
0.340669 0.582821 -0.750000
-0.970177 1.250000 -0.277615
-1.000000 0.619361 -0.413195
0.080104 0.244363 0.750000
-0.574387 0.756561 -0.750000
-0.255172 0.784688 0.750000
-0.010263 -0.096989 -0.250000
-1.246284 -0.218251 0.138455
-0.817423 -0.540486 0.422758
-0.402214 -0.789787 0.026504
-1.000000 0.873516 0.043214
-1.008513 -0.457953 0.324827
-0.410257 -0.477915 0.854983
-0.089668 1.250000 -0.466983
-0.750000 0.455336 0.592850
-0.165584 -0.500000 -0.085278
1.000000 0.725775 0.133915
-0.988715 0.050263 -0.059748
-0.774043 0.488655 -0.750000
-0.948481 0.250000 -0.326166
-0.905947 0.250000 -0.204582
-0.712284 1.500000 0.227944
-0.930458 0.250000 0.127745
-0.859368 0.182457 0.440722
-1.000000 0.685104 -0.500254
-0.679003 0.250000 -0.685829
-1.235129 -0.201583 0.314044
-1.157512 -0.381851 0.259485
-0.835318 0.250000 -0.213765
-0.768131 0.766276 -0.750000
-0.952062 0.342734 0.250000
-0.465289 0.000000 -0.453619
-0.902657 1.051209 -0.750000
-0.500000 0.177863 -0.482592
-0.372850 -0.759776 0.405566
-0.817061 -0.509968 0.068569
-0.249908 0.501224 -0.750000
-0.886012 0.155227 0.219473
-1.000000 0.458196 -0.058193
-1.050635 -0.013020 0.629460
-1.000000 1.246869 -0.250021
-0.536259 -0.848636 0.391777
-1.000000 0.650822 -0.559199
-0.952907 -0.385850 0.073365
-1.125749 -0.089789 0.149847
-0.536409 -0.024371 1.102171
-1.033879 -0.195053 0.012573
0.004499 1.500000 0.340918
0.250000 -0.294793 0.243018
-1.000000 0.806183 -0.710256
-0.459921 0.918644 -0.750000
-0.965639 0.914086 0.250000
0.020238 0.250000 -0.542302
-0.750000 -0.369276 -0.128916
-1.000000 0.337411 -0.648848
-1.002368 0.036310 -0.029126
-0.252688 0.000000 -0.450168
-0.787704 -0.504506 0.049942
-1.000000 0.763596 -0.580323
-1.017605 -0.431646 0.341151
-0.681880 -0.043560 -0.250000
0.250000 -0.492434 -0.229637
-0.906704 0.250000 0.020483
0.272261 1.192624 -0.750000
-0.610368 0.347752 0.938843
-0.390172 0.306487 -0.750000
-0.497153 0.910018 -0.750000
-0.134235 -0.148497 -0.250000
-0.500000 0.070263 -0.349877
-1.037672 -0.419577 0.136930
-1.000000 0.685773 -0.729063
-0.750000 0.082506 -0.181047
0.103904 0.250000 -0.576074
-0.876172 0.250000 -0.121795
-1.186647 -0.238107 0.117478
-1.079479 -0.390901 0.143595
-0.872658 -0.441762 0.464650
-0.487661 0.234075 -0.500000
-0.799880 -0.465002 0.509630
-0.500000 0.113448 -0.359871
-0.991508 -0.114650 0.662325
-0.003546 -0.044919 -0.250000
-1.000000 0.389860 -0.321766
-0.496776 -0.817733 0.456976
-0.332280 -0.718313 0.274517
-0.204179 -0.500000 -0.195846
-1.000000 0.309505 -0.163051
-0.876906 -0.239031 -0.047149
-0.954185 0.085553 -0.058280
-0.850017 0.250000 -0.700285
-0.081864 1.500000 0.028098
0.225868 -0.500000 0.224931
-0.889678 0.151480 0.220283
-0.668829 1.250000 -0.710065
-0.500000 0.240607 -0.471471
0.182806 -0.500000 -0.163787
-0.303770 -0.286875 -0.250000
-1.000000 1.048012 -0.529618
-1.080716 -0.409888 0.154602
-1.000000 0.780472 -0.020030
1.000000 0.520273 -0.638318
-0.748685 0.300954 -0.750000
-0.677787 -0.500000 0.648163
-0.500000 0.097457 -0.321930
-0.860083 -0.198185 -0.078373
0.322918 0.698900 0.500000
-0.494685 0.000000 -0.470481
-1.000000 0.276705 -0.341373
-0.274790 1.195536 -0.750000
-0.675696 -0.799265 0.150829
-0.999454 1.250000 -0.144321
-0.899091 0.089304 -0.205075
-0.750000 -0.303778 -0.172479
-0.847189 0.250000 -0.068457
-0.249186 -0.633389 0.251152
-0.720148 -0.062982 0.959734
-0.646141 -0.795756 0.340547
-0.670466 0.250000 -0.275271
-0.500000 0.125213 -0.396985
0.303665 0.100123 -0.500000
-0.750000 0.498951 0.353415
0.058364 -0.500000 -0.237362
-0.040458 0.250000 -0.609451
-1.000000 0.317889 -0.543681
0.004626 0.898758 -0.750000
-0.750000 -0.465449 0.654628
0.250000 -0.346760 -0.136399
-1.000000 1.028819 -0.673505
0.500000 0.016259 0.045371
-0.211922 0.250000 -0.671114
-1.245948 -0.212636 0.265728
-0.667804 -0.754826 0.359050
-0.750000 0.850026 0.398479
-0.750000 1.128796 0.423323
-0.601859 0.250000 -0.562968
0.789191 1.250000 -0.159068
-1.156235 -0.173229 0.065915
-0.862659 -0.018700 -0.174794
-0.121666 -0.086341 0.914826
0.578787 0.685740 0.250000
-0.604734 -0.963349 0.221393
-0.900438 -0.533266 0.125713
0.144827 0.357831 -0.750000
-0.677101 1.250000 -0.269661
-0.196349 -0.023929 -0.250000
-1.068313 -0.031088 0.156904
-0.073452 -0.500000 0.126071
-0.980671 -0.201289 -0.012393
-0.873324 -0.390182 0.033297
0.404189 0.765545 0.500000
-0.052113 -0.087208 -0.250000
-1.000000 0.300734 -0.731600
-0.029441 -0.281251 0.971856
-0.877293 0.363928 -0.750000
-0.958729 -0.432858 0.394032
-1.000000 0.496478 -0.629994
-0.203523 0.000000 -0.414418
0.500000 0.159082 -0.444026
-0.753479 0.509246 -0.750000
-0.753848 -0.575392 0.448356
-0.810495 -0.207697 -0.099627
-1.057497 -0.020039 0.195796
0.501167 1.250000 0.233305
-0.686821 -0.176561 0.883814
-0.120865 1.137380 -0.750000
-0.117829 0.687304 0.750000
-1.115660 -0.246987 0.084472
-0.769573 -0.042954 -0.210260
-1.000000 0.563977 -0.440920
-0.891095 0.379027 0.250000
-0.345932 0.385327 -0.750000
-0.211843 1.250512 0.750000
-1.000000 0.606006 0.161478
0.877647 1.250000 -0.590591
0.435210 1.216662 0.250000
0.250000 -0.368530 0.156143
-1.000000 0.696127 0.137273
-1.000000 0.721199 -0.594160
-0.187257 -0.570098 0.073797
-1.112308 -0.076054 0.039500
0.041506 -0.500000 0.696918
-1.082298 -0.045381 0.613049
-1.226657 -0.192918 0.225187
-0.381025 -0.768131 0.436964
-0.442213 0.335926 -0.750000
0.940289 0.514270 -0.750000
-0.750000 1.147277 0.392001
-0.665226 -0.606680 0.500325
-0.941935 0.250000 -0.617792
-0.812647 0.250000 -0.739079
-0.071828 0.283000 -0.750000
-1.000000 0.260363 -0.722231
-0.813682 0.041897 -0.171168
0.500000 0.206840 0.166240
-0.495686 -0.606891 0.655672
-0.133135 -0.205167 0.985683
-0.681936 0.738195 -0.750000
-0.657236 -0.422665 -0.250000
-0.409308 0.250000 -0.671945
-0.565407 -0.455714 -0.250000
-0.321910 -0.707714 0.185963
-0.423886 0.481116 -0.750000
-0.500000 0.212154 -0.265598
0.250000 0.424884 0.728886
0.093631 0.250000 -0.609813
-0.309291 -0.694818 0.716544
-1.097084 -0.269296 0.420459
0.531714 0.250000 -0.307658
0.361605 1.250000 -0.439003
-0.916126 0.124450 0.764892
-0.034279 -0.500000 -0.024443
-1.000000 0.624034 -0.002600
-0.763892 -0.802263 0.226415
-1.196820 -0.355442 0.248185
0.250000 -0.427304 0.179401
-1.119723 -0.083631 0.258991
-0.873413 -0.321195 -0.004243
-0.750000 0.006321 -0.204519
-0.122710 0.523067 -0.750000
-0.145303 -0.527220 0.960680
-0.901386 0.937261 -0.750000
-0.804729 1.250000 -0.426324
-0.750000 1.309815 0.218900
-1.000378 0.038340 0.558042
0.716165 0.466295 0.250000
0.250000 -0.431452 -0.180695
-0.750000 1.233304 0.263173
-0.324188 -0.710042 0.562256
-0.633600 -0.658159 0.481070
-0.966515 0.250000 -0.599314
0.222444 1.341155 -0.250000
-1.066771 -0.452612 0.170444
-1.176624 -0.262532 0.353828
-0.972878 1.250000 0.067633
-0.745450 1.355453 -0.250000
0.383433 0.250000 -0.674701
-0.750000 -0.394624 -0.229668
-0.875412 -0.592422 0.144603
0.474831 0.000000 -0.000761
0.335324 0.250000 -0.515987
0.217020 0.206840 -0.500000
-0.769178 0.250000 -0.652066
-1.000000 0.318329 0.191711
-0.149364 0.699976 0.750000
-1.178888 -0.357392 0.262806
0.250000 -0.226885 -0.054162
-0.709432 0.250000 -0.742952
-0.779757 0.250000 -0.188407
-0.299618 -0.258273 -0.250000
-0.193852 -0.181146 -0.250000
-1.164313 -0.419056 0.218359
-0.281757 1.469883 0.750000
-0.717973 1.250000 -0.602540
-0.916301 -0.380149 0.050743
-1.000000 0.355994 -0.609853
-0.594584 -0.462568 -0.250000
0.274287 1.250000 -0.556316
-0.940632 0.876399 -0.750000
0.127100 1.026187 -0.750000
-0.647163 1.029825 0.750000
-0.699950 -0.206338 0.843848
-1.000000 0.599869 -0.621237
-1.035691 -0.156838 0.582230
-0.048449 0.680668 -0.750000
-0.033025 0.459557 -0.750000
-0.934567 0.105602 0.388651
-1.000000 0.818832 0.228914
-0.847654 1.152305 -0.750000
-1.022236 -0.154883 0.596409
-0.390748 0.580383 0.750000
-0.985226 0.250000 0.121681
-0.846193 0.250000 -0.554031
-0.739967 -0.500000 -0.150188
-0.725180 0.250000 -0.719895
-0.500000 0.103432 -0.298587
-0.235367 -0.476017 -0.250000
-0.750000 0.663965 0.382139
-0.922368 0.023313 -0.165853
-1.000000 0.270997 -0.376859
-0.705436 1.250000 -0.739158
-0.954315 0.252283 0.250000
-1.079920 -0.171465 0.024268
-0.106284 -0.018497 -0.250000
-1.206909 -0.378910 0.204999
-0.424826 -0.707360 -0.032990
-0.101793 0.083901 -0.500000
1.000000 0.867286 -0.681476
-1.000000 0.527018 -0.404764
1.000000 0.397242 -0.125405
-1.000000 0.467955 -0.296511
0.605747 0.250000 -0.714004
-0.293465 -0.047547 -0.250000
-0.326705 0.250000 -0.657484
-0.412273 0.197067 -0.500000
-0.430612 0.379466 -0.750000
0.500000 0.211470 -0.057183
-0.360568 -0.176229 -0.250000
-1.220222 -0.237804 0.337015
-0.630091 -0.334569 0.787704
-0.336036 -0.720701 -0.073057
-0.801464 -0.577105 0.096834
-1.157618 -0.298573 0.337474
-0.502295 -0.500000 -0.200556
-1.091277 -0.409172 0.294634
0.496003 0.140523 0.500000
-0.526519 -0.916828 0.275237
-0.906473 0.134315 0.450217
0.428481 0.385701 -0.750000
1.000000 0.979319 -0.363502
-0.388446 1.019526 0.750000
0.108406 0.402029 -0.750000
0.025643 -0.500000 0.480968
-0.750000 0.866966 0.272493
0.222304 -0.500000 0.283989
-0.500000 0.025711 -0.333464
-0.572690 -0.651521 0.015415
-0.400051 0.863719 -0.750000
-1.000000 0.616623 -0.450236
-0.502328 -0.419715 -0.250000
-1.000000 0.718257 -0.454654
-0.343962 -0.588288 0.812314
-1.018258 0.020072 0.327887
1.000000 0.490043 -0.137855
0.735977 0.850175 0.250000
-0.736160 -0.786596 0.266548
0.276139 0.882948 -0.750000
-0.510664 -0.385946 0.849099
-0.692722 -0.536546 0.016762
-0.828383 1.250000 0.059426
-0.447570 0.250000 -0.609675
-0.268766 -0.582011 -0.184487
-0.250703 -0.634939 0.452060
-0.744830 -0.817220 0.197470
-1.138772 -0.103102 0.320652
-1.085766 -0.490454 0.201190
-0.557712 0.024645 -0.250000
-1.214028 -0.268953 0.313492
-0.637213 0.543225 -0.750000
0.250000 -0.021482 0.339854
-0.835118 0.673585 0.250000
-1.000000 0.372924 0.065275
-0.641969 0.250000 -0.524064
-0.470053 -0.802141 0.496112
-0.719128 -0.146905 -0.250000
-0.793899 0.526295 0.250000
-0.199044 1.250000 -0.344199
0.250000 -0.413343 0.042060
0.734197 0.441893 -0.750000
0.250000 -0.210818 -0.062448
-0.929251 0.111036 -0.143659
-1.075280 -0.038211 0.482851
0.021393 -0.098650 -0.250000
-0.339754 0.146396 -0.500000
0.070321 -0.113942 0.827512
-0.475882 -0.005068 -0.250000
-0.779879 0.239728 1.088071
-0.419116 -0.807061 0.045044
0.204686 0.000000 -0.360647
0.042224 -0.066815 -0.250000
-1.000000 0.908265 -0.428379
-0.614220 0.884617 -0.750000
0.062774 0.030090 -0.500000
-0.162217 -0.544506 -0.075781
-0.343513 -0.059118 -0.250000
-0.681587 -0.755613 0.345667
-0.429321 -0.787074 0.547610
-0.508719 1.075595 -0.750000
-0.766726 -0.641115 0.374914
-0.797921 0.250000 -0.487499
-0.912986 0.127660 -0.172949
-0.671504 -0.500000 -0.020808
-0.306771 -0.692242 0.431496
-0.933947 -0.443971 0.094925
-0.903811 -0.359567 0.032870
0.435145 0.932229 0.500000
-0.693386 0.250000 -0.495309
-0.380088 -0.726915 -0.046186
-0.529121 -0.469426 0.753891
-0.937737 0.871324 -0.750000
-1.000000 0.439626 -0.127629
-0.642012 -0.637149 0.044541
-0.803905 -0.745911 0.242543
0.014599 -0.500000 -0.195431
-0.356950 -0.685315 0.709421
-0.644174 0.250000 -0.726085
-0.434182 0.000000 -0.410943
0.574067 0.491099 -0.750000
-0.689439 0.458154 -0.750000
-0.167696 -0.366117 -0.250000
-1.181819 -0.267013 0.130655
-1.000000 0.338601 -0.583881
-0.876097 0.165360 0.570779
-0.812587 -0.352985 -0.019350
0.197109 -0.500000 0.512220
-0.672479 -0.836041 0.169152
-0.773626 -0.183937 -0.132229
-0.697017 -0.500000 -0.164156
0.250000 -0.498796 -0.097127
0.013689 -0.500000 0.419705
-0.650255 0.501214 -0.750000
-0.768378 0.696397 -0.750000
0.434096 0.515294 -0.750000
-0.750000 0.741544 0.511387
0.312523 1.124617 -0.750000
-0.763604 0.099351 -0.071351
-0.616137 -0.378320 -0.250000
-0.966976 -0.572467 0.255562
-0.132681 1.250000 -0.717665
-1.000000 1.214993 -0.628612
-0.342667 1.146662 -0.750000
-0.762592 -0.775465 0.252735
-0.750000 -0.394311 -0.162276
-0.919219 -0.414911 0.071239
-0.424302 1.500000 -0.207451
-0.025472 -0.500000 0.023764
0.250000 -0.180939 0.367578
-0.423543 0.525648 -0.750000
0.021034 0.250000 -0.676473
-0.991060 0.296682 -0.750000
1.000000 0.584677 -0.431170
0.457656 0.000000 0.099823
-1.095588 -0.395179 0.154515
0.500000 0.009517 -0.163964
-0.898362 1.250000 0.237891
-0.313760 -0.699385 0.282485
-0.805367 -0.241413 -0.083991
0.265717 0.000000 -0.428683
-0.167300 -0.251758 1.029282
-0.937984 0.442258 -0.750000
-0.667211 0.387879 -0.750000
-0.798682 -0.024692 -0.205637
-0.750000 1.386944 -0.230177
-0.724237 1.500000 -0.073202
0.383205 0.000000 0.046908
-0.547778 -0.931547 0.154709
-0.737786 -0.814659 0.192319
0.172655 -0.284310 -0.250000
-0.106038 0.931182 -0.750000
-0.683776 -0.608656 0.051282
-0.483859 -0.856061 0.432889
-0.832194 0.467305 -0.750000
0.739204 0.250000 -0.589297
-0.672145 -0.500000 -0.054916
-0.958191 0.081458 0.103338
-1.000000 0.439497 -0.610283
-0.938822 0.250000 -0.549019
-0.850417 0.156762 -0.097167
-0.398895 -0.786394 0.363505
-1.278613 -0.268431 0.254727
-1.000000 0.822138 0.013076
0.460643 1.000000 0.331578
-0.255907 -0.558552 -0.204124
-0.765837 0.278048 0.874216
-0.958682 0.080956 0.570882
-0.013766 -0.205798 -0.250000
0.425231 0.000000 0.195823
-0.500000 0.028351 -0.440472
-0.188414 0.679486 0.750000
-0.725215 -0.401645 0.750000
-1.276599 -0.265332 0.180269
-1.072089 -0.515934 0.207783
-0.930327 -0.642260 0.201035
-0.161180 -0.543446 0.766187
0.043979 1.500000 0.274043
-1.000000 0.619847 -0.103173
-1.000000 0.427113 0.161901
-1.000000 1.075679 -0.701612
-0.655788 -0.691076 0.429849
-0.486575 -0.677608 0.597723
-0.672719 -0.226029 -0.250000
-0.870674 -0.526672 0.386855
-0.950152 -0.610812 0.235043
-0.599603 1.258937 -0.250000
-0.824265 1.161851 0.250000
-0.814155 0.394829 -0.750000
-1.195775 -0.287654 0.312704
-0.793744 -0.694304 0.300255
-0.401089 1.500000 0.539126
-0.493512 -0.167213 -0.250000
-1.000000 1.047348 -0.275170
-1.000000 0.259974 -0.486498
-0.992837 0.250000 -0.687586
-0.750000 -0.315801 -0.085136
0.008782 1.500000 0.064521
-1.184412 -0.149744 0.347929
-0.358936 -0.745555 0.587735
-0.500000 0.171589 -0.303797
1.000000 0.268819 -0.665423
-0.229938 0.250000 -0.513182
0.062641 0.589700 -0.750000
0.250000 -0.343514 0.749618
0.768572 0.250000 -0.345017
-0.655993 -0.516976 -0.013482
0.500000 0.128303 -0.166464
-0.728121 -0.624454 0.425955
-0.793944 0.250000 -0.690760
-0.944433 -0.131807 0.689430
-0.762733 -0.454579 0.009425
-1.000000 0.499555 -0.238716
-0.486495 0.221409 0.941643
-0.750000 -0.450301 -0.037339
0.168947 0.250000 -0.502568
-0.920605 0.250000 -0.292291
-0.821903 0.256972 0.250000
-0.335918 -0.581885 -0.148755
-0.997141 0.041649 0.274184
-1.247049 -0.213766 0.160863
-0.530448 -0.370335 -0.250000
-0.750000 0.210876 0.027548
0.311552 1.003877 0.250000
-1.000000 0.464347 -0.248624
-0.244690 0.811767 -0.750000
-0.954255 0.250000 -0.190921
-0.649779 1.251822 -0.250000
-1.116577 -0.321082 0.125332
1.000000 0.273375 -0.542331
-0.356349 0.250000 -0.743830
-0.779409 -0.645755 0.358928
-0.123634 1.250000 -0.619328
-0.952726 1.161829 -0.750000
-0.750000 0.158656 -0.007452
0.243238 0.176795 -0.500000
-0.617018 1.250000 -0.415645
-0.952311 0.250000 -0.681619
-0.850549 -0.677442 0.263949
-1.100774 -0.162458 0.517249
-0.419417 -0.807367 0.506908
0.322212 1.250000 -0.330519
-0.696283 -0.299609 -0.250000
-1.159965 -0.402925 0.193056
0.508411 0.250000 -0.625454
-0.564421 0.710428 -0.750000
-0.793409 0.552640 -0.750000
-0.104571 0.250000 -0.569987
-0.115622 0.250000 -0.587865
-1.238555 -0.261186 0.157727
-0.578700 -0.637812 0.550518
0.098913 -0.500000 -0.023634
-0.399849 -0.787369 0.570214
-0.762952 1.250000 -0.524937
0.165314 0.000000 -0.491073
-0.953666 -0.107664 0.703595
0.002979 0.485447 -0.750000
-0.500000 0.114377 -0.326601
-1.000000 0.598514 -0.419334
-0.477756 -0.356843 -0.250000
-1.000000 0.829455 -0.166720
-0.782689 0.618365 0.250000
0.256573 0.250000 -0.657991
-0.484737 0.103185 -0.500000
-0.445555 0.447337 0.796719
-0.455623 1.349057 -0.250000
-0.250242 -0.454834 1.023431
-0.637329 0.250000 -0.344532
0.008201 0.046614 -0.500000
-0.379548 0.970141 -0.750000
-0.936739 0.769439 0.250000
-0.502596 -0.727278 0.536452
-0.474799 -0.521578 0.754828
-0.638861 -0.365462 -0.250000
-0.750000 -0.266656 -0.228219
-0.535561 -0.098594 -0.250000
-0.502937 -0.759854 0.037255
-0.301458 0.250000 -0.557883
-0.785827 0.638505 0.250000
0.032273 0.661714 -0.750000
-0.912016 1.250000 -0.733363
-0.079338 0.838428 -0.750000
1.000000 0.371118 -0.125854
0.272068 0.027761 -0.500000
-0.102968 0.000000 -0.397977
-0.727571 0.250000 -0.399408
-0.010932 -0.389891 0.821817
0.008079 1.500000 0.000280
0.514814 0.479973 -0.750000
-0.038593 -0.237924 -0.250000
-0.985363 1.192750 0.250000
0.250000 -0.027666 0.150959
-0.777142 0.250000 -0.565663
0.250000 -0.291288 -0.158198
0.727207 0.250000 -0.705682
-0.874865 0.571344 -0.750000
0.441407 0.250000 -0.637434
0.991018 0.250000 -0.452358
-0.865893 0.250000 -0.372597
-1.000000 1.086311 -0.553781
-0.114121 -0.340623 1.049348
-0.776917 0.266725 0.646710
-0.803122 0.239942 0.366170
-1.000000 0.962030 -0.535643
-1.098038 -0.061469 0.368740
-0.686693 0.064319 1.109793
-0.915108 -0.589424 0.287248
-0.788512 0.980744 -0.750000
-1.132668 -0.254691 0.097738
0.177709 1.500000 0.174371
0.364076 0.000000 0.465172
-0.006351 0.874509 0.750000
-0.543908 -0.407876 -0.250000
-0.709167 0.132834 -0.250000
-0.538988 -0.636388 0.588287
-0.839922 0.250000 -0.676195
-0.731441 -0.556777 0.048427
-1.075870 -0.477704 0.188968
-1.102351 -0.065877 0.046042
-1.000000 0.850135 0.076682
0.319725 1.011679 0.250000
0.250000 0.764729 0.710544
0.149947 1.095658 -0.750000
-0.195578 -0.578603 -0.175629
-0.958012 0.039440 -0.155637
-0.982266 0.907790 -0.750000
0.250000 -0.485994 0.166351
0.784639 1.250000 -0.641741
-0.670002 -0.584975 0.031036
-0.858067 1.145107 -0.750000
-1.000000 0.478368 -0.599140
-0.750000 0.662600 0.558233
-0.521935 0.011226 -0.250000
0.246445 -0.500000 -0.164670
-1.000000 0.971581 -0.707208
-0.500000 0.220974 -0.339153
-0.680822 -0.404922 0.750000
-0.805263 0.860093 -0.750000
-0.336311 1.500000 -0.199771
-0.750000 -0.460819 -0.044785
-0.782168 -0.624389 0.376431
-0.895595 0.250000 -0.131263
-0.560285 -0.745997 0.465973
-0.354106 0.243686 -0.500000
-0.857323 0.945951 -0.750000
-0.668277 -0.645722 0.063215
0.022875 -0.002923 -0.250000
-0.901949 0.138939 0.039022
0.453591 1.250000 -0.595409
-0.627204 0.795410 -0.750000
-0.639359 -0.610228 0.520730
-0.998863 0.704762 -0.750000
-0.345654 -0.496546 -0.250000
-0.835745 0.250000 -0.510817
-0.544938 -0.347514 -0.250000
0.250000 -0.444192 -0.159728
-1.000000 0.810943 -0.536843
0.103259 0.725459 -0.750000
-1.094881 -0.446311 0.181999
-0.808214 0.408231 -0.750000
-0.543462 -0.519295 -0.072211
-0.846626 -0.256553 -0.053745
-1.000000 0.333313 -0.498377
-0.805859 -0.651691 0.139817
-0.891838 0.250000 -0.013925
0.478478 0.955611 -0.750000
-0.378479 -0.765529 0.352706
0.727119 0.250000 -0.317243
0.190863 -0.125360 -0.250000
0.541680 0.250000 -0.640963
-0.764491 -0.422274 -0.007239
-0.358471 -0.745081 0.003322
-1.172902 -0.137984 0.338685
-0.661536 0.037404 -0.250000
0.082670 -0.500000 -0.142220
-0.081723 -0.500000 -0.205312
-0.699184 -0.500000 -0.057481
-0.901673 1.250000 -0.583179
-0.750000 -0.441395 -0.165010
-0.758385 -0.666779 0.122728
-0.332337 0.064722 0.944831
0.250000 -0.340427 0.489201
-1.098306 -0.061747 0.343349
-0.455644 -0.615407 -0.066662
-1.208554 -0.174416 0.273977
-0.805477 1.250000 -0.640534
1.000000 0.860695 -0.293049
-0.750000 0.543080 0.685076
-0.844015 0.250000 -0.451237
-0.219982 0.729531 -0.750000
-0.903137 -0.530916 0.353092
-0.583881 -0.592138 -0.010974
-0.520431 -0.910606 0.229739
-0.883198 0.537267 -0.750000
-0.188170 -0.221836 -0.250000
-0.226662 -0.610370 -0.013052
0.250000 1.134117 0.421502
-0.091685 -0.500000 0.283011
0.500000 0.197299 0.135062
-0.331324 -0.717336 0.327702
-0.845785 0.526562 0.250000
-0.994566 0.250000 0.204167
-0.338839 -0.138372 -0.250000
0.561067 0.344340 -0.750000
-1.046943 -0.460453 0.287226
0.250000 -0.340674 0.522595
-0.459361 0.784961 -0.750000
-0.780446 -0.357135 0.628602
-0.310871 -0.696432 0.449168
0.048468 -0.500000 0.158706
-0.698261 -0.500000 -0.058028
-0.628702 -0.860225 0.296098
-1.000000 0.918634 -0.484657
-1.000000 0.543279 -0.493886
-1.000000 0.635827 -0.278484
-0.399249 -0.786756 0.000069
-0.750000 0.360416 0.563257
0.500000 0.079922 -0.278403
-0.750000 0.077724 -0.153818
0.994773 1.250000 -0.213114
-0.934324 -0.589314 0.269722
-1.133948 -0.098171 0.488784
0.137596 0.461364 -0.750000
-0.248808 -0.633003 0.580671
-0.109495 0.932802 -0.750000
-0.350872 0.742097 -0.750000
-0.750000 0.417149 0.659228
-1.104004 -0.067565 0.195803
0.323072 1.250000 0.243909
-0.493493 0.184613 0.965422
-1.113930 -0.077713 0.278567
-1.000000 0.757159 -0.405748
-1.124755 -0.128102 0.024545
-0.056871 0.658349 -0.750000
-0.848815 0.479813 -0.750000
-0.206601 0.250000 -0.594774
-0.778550 0.403223 -0.750000
-0.632703 -0.934428 0.201554
-0.390872 -0.474091 0.876354
0.172805 1.442102 -0.250000
-0.778910 -0.622158 0.381512
-0.850451 1.124459 -0.750000
-0.918613 0.318109 0.250000
0.294659 0.000000 -0.109450
-0.138653 -0.264088 -0.250000
0.217609 -0.500000 0.192200
-0.849250 0.492671 0.250000
-1.039106 -0.001241 0.056029
0.250000 -0.351421 -0.126339
-0.927755 0.527117 -0.750000
-0.480406 -0.150468 -0.250000
0.044936 -0.500000 0.190187
-0.500000 0.162450 -0.470972
0.250000 -0.371449 0.492925
-0.750000 0.880921 0.358810
1.000000 0.833196 -0.465040
-0.894907 -0.623995 0.172200
-0.948586 0.250000 0.012560
-0.750000 0.672917 0.532280
0.828350 0.250000 -0.154637
-0.656748 -0.867343 0.263693
0.186181 -0.266951 -0.250000
-0.599132 1.250000 -0.725265
-1.068086 -0.030857 0.006820
-0.750000 1.453055 0.412974
-0.871400 -0.144282 -0.101710
-0.411947 -0.366783 -0.250000
0.272467 0.843641 -0.750000
0.250000 -0.339228 0.594405
-0.499112 0.270592 -0.750000
-1.000000 0.360425 -0.590735
-0.283270 -0.668223 0.413748
-0.381500 -0.287330 1.060064
-0.151959 -0.534022 0.321037
-1.000000 1.005567 -0.710158
-0.991680 0.047232 0.056284
-1.072868 -0.035743 0.056888
-0.304170 -0.500000 -0.210709
-0.750000 1.404986 0.407809
-1.100485 -0.369991 0.322921
-0.549410 -0.136963 1.047008
-0.940122 -0.070536 -0.105253
-0.874430 0.429847 -0.750000
-0.327788 -0.713722 0.574483
0.296459 0.000000 -0.464417
-0.699709 -0.713967 0.368091
0.736043 0.467658 -0.750000
-0.355153 -0.736915 0.662687
-0.942578 -0.137550 -0.067430
-0.085299 -0.500000 0.590424
-0.426658 0.179532 -0.500000
-0.750000 0.304989 0.566617
-0.942568 -0.622290 0.231239
-1.248799 -0.259437 0.162236
-1.274810 -0.278426 0.186450
-0.188850 0.584002 -0.750000
-0.887316 0.153894 0.085707
-0.208371 0.250000 -0.676959
-0.940758 0.250000 -0.259445
-0.317046 1.498278 -0.250000
0.250000 -0.156419 0.405614
-1.020249 -0.383059 0.107745
-0.750000 -0.321047 -0.142243
-0.386422 -0.287338 -0.250000
-1.003024 -0.193544 0.577786
-1.000000 0.803974 -0.548422
0.027853 -0.500000 0.736741
-1.000000 0.927420 -0.563915
-0.911493 0.250000 -0.545259
-0.631477 -0.275461 -0.250000
-1.000000 0.516495 -0.645051
-0.073519 -0.404904 1.062725
0.549898 0.684377 -0.750000
0.637569 0.343952 0.250000
-1.000000 0.848819 -0.150255
-0.883685 0.250000 -0.654722
0.793467 1.250000 -0.033525
-0.942657 -0.590531 0.260936
-0.941253 1.093947 -0.750000
-0.717315 0.250000 -0.662947
-0.673270 -0.411860 -0.250000
-1.265458 -0.288918 0.247589
0.085684 -0.500000 0.096296
-0.013714 -0.500000 -0.194952
-0.828540 -0.309035 -0.034791
0.250000 1.316701 -0.050971
0.090035 -0.500000 0.713795
-1.000000 0.731067 0.179882
-1.272228 -0.299742 0.196686
-0.236459 -0.620383 0.193917
-0.912505 0.860660 -0.750000
-1.000000 0.727750 -0.639041
0.278733 0.250000 -0.628501
-0.821451 0.250000 -0.325809
-0.387779 -0.627935 -0.096016
-0.291465 -0.261435 1.100752
-0.714100 -0.703886 0.119336
-0.780487 0.022968 -0.158461
-0.714050 1.500000 0.429877
-0.750000 -0.385842 -0.045570
-0.583514 -0.843160 0.353557
-0.364852 -0.524525 -0.164582
-0.412213 -0.500000 -0.217914
1.000000 0.306109 -0.541814
-1.145624 -0.322389 0.141531
-0.029684 0.835048 -0.750000
-0.440656 0.250000 -0.635560
-0.271799 1.500000 -0.206094
-0.955969 0.083729 0.098091
-0.954561 0.745698 0.250000
-0.965233 0.783423 0.250000
-0.344866 1.500000 0.380617
-0.480146 -0.822625 0.059306
-0.458668 0.000000 -0.338117
-0.750000 -0.493995 -0.153252
-0.946175 0.093739 -0.066387
-0.642154 -0.772265 0.366231
-0.411376 -0.767575 -0.007352
-0.399786 1.250000 -0.365717
-0.474122 -0.500000 -0.189921
-0.154133 -0.500000 -0.182931
-0.500000 0.093621 -0.450065
-1.000000 0.359847 -0.288035
0.256370 0.000000 -0.180539
-0.086045 -0.484954 -0.250000
-1.000000 0.589529 0.068220
-1.019580 -0.215751 0.541777
-0.750000 0.505940 0.591549
0.621467 0.250000 -0.429052
0.919933 1.250000 -0.735121
-1.175906 -0.141047 0.076086
-1.001578 0.037111 0.536947
-1.000000 0.286285 -0.458196
-0.450431 -0.634612 -0.058977
-0.622429 -0.912713 0.252639
-0.788399 0.254990 0.570007
-0.628615 0.311500 -0.750000
0.593481 1.250000 -0.117332
-1.000000 0.482968 -0.698662
-1.178141 -0.369617 0.252026
-1.020807 -0.203046 0.009961
-0.925599 -0.507557 0.354386
-0.819691 -0.747717 0.199511
-0.387475 0.000000 -0.383626
-0.844875 0.250000 -0.486118
-0.919736 0.751240 -0.750000
1.000000 0.841266 -0.101569
-0.394389 0.993572 0.750000
-0.104550 0.160472 -0.500000
-0.656786 0.933413 -0.750000
-1.000000 0.302660 -0.709552
-1.000000 1.098359 -0.238016
-0.312803 -0.698407 0.543410
-1.000000 1.057167 -0.665582
-1.077399 -0.111814 0.586185
-0.750000 1.190145 0.598333
-0.374295 1.250000 -0.696750
-0.740667 0.218694 -0.250000
-0.765141 -0.662386 0.123935
-0.023817 -0.337829 -0.250000
-0.838218 0.070000 -0.167328
-0.659465 0.250000 -0.554591
-0.794200 0.539245 -0.750000
-0.500000 0.217349 -0.271755
-0.546091 -0.936831 0.248353
-1.233844 -0.318261 0.249080
0.454290 0.000000 -0.485684
-0.532228 -0.638438 0.592567
-0.973806 0.250000 -0.592344
0.279151 0.250000 -0.653134
-0.913686 0.126943 0.616256
-0.688144 -0.877811 0.200262
-0.992203 0.250000 -0.517127
-1.000000 0.525527 -0.651020
0.034501 -0.500000 -0.242841
-0.541816 -0.308619 0.893024
-0.625369 -0.795649 0.122029
-1.000000 0.323544 -0.586568
-0.107705 1.500000 0.142294
-1.000000 0.421030 -0.623118
-0.507530 -0.332162 0.902405
-1.000000 0.863152 -0.298810
0.159946 -0.500000 0.132343
-0.868918 -0.644176 0.278287
-0.048631 -0.500000 -0.209518
-0.824767 0.250000 -0.584862
-0.246423 -0.630565 0.119522
-0.952166 -0.302662 0.027644
-0.480255 -0.631495 -0.044776
-0.500000 0.101009 -0.362414
-0.198480 0.310065 0.750000
-0.835297 0.250000 -0.699374
-0.230611 0.996524 -0.750000
-0.539835 -0.692415 0.534976
-0.980353 -0.318318 0.051202
-0.621321 -0.219963 -0.250000
1.000000 0.593326 0.171007
-0.767852 0.275989 0.340523
0.250000 -0.115499 0.427372
-0.619464 0.035499 1.113827
-1.000000 1.038040 -0.643691
-0.739127 -0.806032 0.245603
-0.279367 0.208075 -0.500000
-0.908852 0.714996 -0.750000
-0.567287 0.250000 -0.458011
-0.817999 0.250000 -0.594647
-0.640914 0.250000 -0.619006
-0.998382 0.040383 -0.058911
0.054499 0.289297 0.750000
-0.753152 -0.548097 0.474587
-0.801541 0.419843 -0.750000
-0.118775 0.000000 -0.263074
-1.000000 1.153945 -0.680430
-0.548173 0.858445 -0.750000
0.096713 -0.500000 -0.022418
-0.226801 -0.610512 -0.100241
-0.452264 -0.309384 0.974466
-0.607917 -0.800745 0.370939
-0.750000 1.395264 0.000524
-1.000000 0.650984 -0.579433
-0.750000 -0.240825 -0.152689
-0.545297 -0.629130 -0.011389
-1.087120 -0.370787 0.334440
-0.711700 0.418649 -0.750000
0.259270 0.643627 -0.750000
-0.209249 -0.205544 -0.250000
-0.953571 0.338999 -0.750000
-0.952324 -0.099637 -0.082891
-0.578956 0.745343 -0.750000
0.250000 0.728739 0.694171
-0.614260 0.636558 -0.750000
-0.750000 -0.333155 -0.222740
-0.865829 -0.650369 0.275315
-0.839829 0.443699 -0.750000
-1.000000 0.380657 -0.615474
-1.019786 -0.516960 0.259157
-1.000000 0.940610 0.120839
-0.487417 -0.388737 0.867810
-0.564795 0.250000 -0.477827
-0.531491 0.351795 0.894589
-1.000000 0.353983 -0.200165
-0.909723 0.130994 0.019709
-0.189181 0.250000 -0.505971
-1.000000 0.838098 -0.724157
-0.211295 -0.594665 0.555253
-0.799850 -0.255335 -0.079346
0.250000 -0.181254 -0.187810
0.806771 0.250000 -0.345042
-0.899762 -0.135177 -0.091549
-0.367042 0.250000 -0.562417
0.221627 -0.500000 0.123868
-0.186366 -0.553790 -0.154181
-0.833729 0.208661 0.746037
-0.459092 -0.386503 -0.250000
-0.795912 0.692321 0.250000
0.592744 0.907966 0.250000
-0.674797 -0.500000 -0.111767
-0.821842 0.278074 -0.750000
-0.784914 0.250000 -0.096824
-0.211773 1.250000 -0.688721
0.040580 -0.322566 -0.250000
-1.000000 0.976939 -0.524318
-0.585290 0.250000 -0.741537
-0.434545 -0.334045 -0.250000
-0.608883 -0.696676 0.059313
-1.148210 -0.112746 0.300521
-0.607620 0.930922 -0.750000
-0.799374 -0.588762 0.394052
-0.323703 -0.108639 1.034684
-0.036838 0.250000 -0.688335
-0.351352 -0.737804 0.275253
-0.320539 -0.706313 0.580058
-0.394212 -0.557866 -0.130764
-0.631609 1.029625 -0.750000
-1.254568 -0.254127 0.290200
-1.053982 -0.420185 0.145959
-0.469946 -0.114848 -0.250000
-0.459582 0.000000 -0.328928
-0.327960 1.263121 0.750000
-0.372895 -0.759822 0.369606
-0.516882 0.789992 -0.750000
-0.600140 -0.665095 0.037445
-0.675909 -0.902374 0.207124
-0.987585 -0.482134 0.144314
-0.146397 0.198888 0.772602
-0.470083 0.938409 -0.750000
0.810655 0.250000 -0.734984
-0.872186 -0.011332 0.868675
0.500000 0.116000 -0.481272
-0.950037 -0.482264 0.355681
-0.750000 0.413175 0.374042
-0.926341 1.250000 -0.730017
0.909023 1.250000 0.219221
0.283958 1.186386 0.250000
-0.755250 -0.506044 0.033478
-0.844566 1.250000 -0.455418
-1.000000 0.369351 0.244000
-0.320792 0.560738 -0.750000
-0.330105 1.339397 -0.250000
0.171098 -0.089650 -0.250000
-0.550488 -0.500000 -0.196187
-0.992249 -0.493473 0.306445
-0.903676 0.421054 -0.750000
-1.000000 0.912807 -0.500972
-0.733600 -0.500000 -0.028957
-0.181310 -0.540974 -0.137526
0.442988 0.250000 -0.656432
-0.007352 -0.500000 0.590018
0.170494 -0.500000 0.147204
-0.581467 0.160899 -0.250000
-0.750000 -0.169583 -0.167847
-0.663986 0.797474 0.750000
0.649201 0.250000 -0.410086
0.250000 0.061296 0.542963
0.377007 0.327529 -0.750000
-0.615620 0.250000 -0.586745
-1.028742 -0.040627 -0.074302
-1.000000 0.313690 -0.381255
-0.653269 -0.865165 0.268926
-1.000000 0.284339 0.220990
-0.737197 0.089714 -0.250000
0.376709 0.000000 -0.136642
-0.329229 0.250000 -0.522147
-1.000000 0.736884 -0.485232
-0.951642 0.250000 -0.578887
0.397772 0.000000 0.256552
-0.694351 1.079487 0.750000
-0.500000 0.187406 -0.451718
-0.429175 -0.415621 -0.250000
1.000000 0.857671 -0.722276
-0.222635 -0.398531 -0.250000
-0.553715 0.525684 -0.750000
0.070945 -0.414814 -0.250000
-0.928865 0.078780 0.901169
-0.498297 -0.500000 -0.123548
-0.500000 0.195454 -0.306107
-1.000000 0.946645 -0.651738
-0.996127 0.687346 -0.750000
-0.750000 -0.228029 -0.193521
-0.231311 -0.291613 1.085123
-0.750000 0.408709 0.502392
0.614488 0.250000 0.156013
-1.000000 0.432936 -0.656578
-0.503567 -0.188143 -0.250000
-0.402235 -0.242143 1.083413
-1.026128 -0.199510 0.010870
-0.205343 -0.588582 0.492136
-0.828828 -0.612745 0.344540
0.357560 1.250000 -0.668786
-0.073294 1.250000 -0.687252
-1.000000 0.319868 -0.383083
-0.345289 -0.731608 0.056446
-0.742141 0.250000 -0.250196
-0.803749 0.471074 0.250000
-0.188505 0.008116 -0.500000
-0.750000 1.250385 0.272554
0.371477 0.692114 -0.750000
-0.227647 0.875220 -0.750000
-0.629966 -0.540933 0.594322
-0.716886 -0.748757 0.319710
-0.310231 -0.695778 0.655910
-0.838557 0.250000 -0.655271
-0.871133 -0.373010 0.022773
-0.316460 -0.388567 -0.250000
-0.861150 0.180636 0.233142
0.026097 -0.500000 0.198588
-0.891345 1.141329 -0.750000
-1.056367 -0.206683 0.516529
0.889944 0.250000 -0.713027
-0.836706 1.250000 -0.479409
-1.061248 -0.352521 0.375302
-0.796783 0.250000 -0.694601
-0.048213 0.043928 -0.500000
-0.400508 0.000000 -0.442528
-0.814289 -0.538241 0.427738
-0.382938 -0.539366 -0.146854
-0.750000 1.273010 0.065072
-0.680031 1.307292 -0.250000
-0.374848 -0.761818 0.202012
-1.000000 0.853205 -0.123042
-0.605899 -0.134262 -0.250000
-0.620894 -0.642511 0.507400
-0.211159 -0.594525 0.050205
-0.933745 -0.166126 0.667055
-0.302885 -0.680456 0.763578
-0.401089 0.358193 -0.750000
-0.711666 -0.643407 0.085086
-0.885225 -0.663256 0.245436
-0.618569 -0.696488 0.458922
-0.921738 0.293160 -0.750000
-0.036027 0.188183 -0.500000
-0.991059 0.047868 0.461732
-0.689789 -0.622263 0.463178
-0.536144 -0.728343 0.037789
-0.566582 0.833838 -0.750000
-0.235989 0.408961 -0.750000
0.865758 0.356460 -0.750000
0.179192 1.144907 -0.750000
0.781741 0.916759 -0.750000
-0.452913 -0.312834 0.970636
0.159235 -0.427811 0.750000
-0.048050 -0.427825 0.817744
-0.431216 0.299208 0.869784
-0.735998 0.535738 -0.750000
-0.899790 -0.235466 -0.036891
-0.644732 0.250000 -0.340118
-0.785780 0.250000 -0.723388
-0.561712 -0.400003 -0.250000
-0.895898 -0.146533 -0.087422
-0.578427 -0.520775 -0.052764
-0.500000 0.103543 -0.376128
-0.677331 -0.598840 0.496571
-0.945328 -0.250224 0.577575
-1.128142 -0.135678 0.030478
-1.077792 -0.040778 0.531679
-0.807185 -0.714199 0.174581
0.250000 -0.427172 -0.135369
0.250000 1.250799 0.038745
-1.000000 0.968105 -0.106744
-0.617983 -0.888402 0.279511
0.426297 0.000000 0.082958
-0.281259 0.425515 0.750000
-1.159584 -0.302625 0.138204
-0.257593 -0.641981 0.481978
-0.104291 1.233843 0.750000
-0.074319 1.077851 -0.750000
-0.602538 -0.373331 0.776638
-0.902632 0.996186 -0.750000
-0.263122 0.250000 -0.540293
-0.976522 0.250000 0.053698
-1.249192 -0.268192 0.167215
-0.718925 -0.616457 0.441892
-0.750000 0.946868 0.391960
0.025345 0.220910 0.750000
-0.930997 0.261184 -0.750000
-0.581312 -0.500000 -0.134977
-0.643054 -0.329924 0.780167
-0.255667 1.381790 -0.250000
-0.480722 0.535171 0.767611
-0.390091 0.305876 0.844225
-0.814684 0.250000 -0.034586
-0.791446 1.250000 -0.159992
-0.777187 0.266448 0.801583
-0.396421 -0.227170 1.102790
0.228260 0.266117 -0.750000
-0.246311 -0.229138 -0.250000
-0.280246 0.009622 -0.500000
-1.128911 -0.093023 0.109641
-0.854909 0.250000 -0.436345
-0.428950 -0.544472 0.775426
-0.748935 -0.663276 0.370457
-0.379589 -0.766663 0.560468
-1.236645 -0.317553 0.187421
-0.777563 0.112996 -0.071365
-0.608072 0.198351 -0.250000
0.208507 0.557710 -0.750000
-0.700937 -0.031409 1.006966
-0.917860 0.250000 -0.426846
-0.888324 0.753549 0.250000
-0.750000 0.444666 0.331776
1.000000 0.542581 -0.513138
-0.399954 0.250000 -0.526402
-0.448038 -0.826072 0.493871
-0.754670 -0.281187 -0.089347
0.162387 0.345501 -0.750000
-0.345874 1.255507 -0.250000
-1.000000 0.419834 -0.662746
-0.842209 0.453359 -0.750000
-0.232174 0.970682 -0.750000
-0.630334 -0.429584 -0.250000
-0.627338 0.760992 0.750000
-0.496012 0.250000 -0.568599
0.357886 0.117168 -0.500000
-1.000000 0.847786 -0.002703
0.250000 -0.136298 0.458075
-1.090255 -0.053516 0.283110
-0.669286 -0.546448 0.009662
-0.554283 -0.823700 0.099415
0.505976 0.275090 -0.750000
-0.468261 0.505042 0.777383
-0.627750 0.166799 -0.250000
-0.750000 1.458590 0.652114
-1.036143 -0.217897 0.026227
-0.750000 -0.308616 -0.234256
-0.835033 0.250000 -0.220132
0.779962 0.250000 -0.183914
-0.032798 1.114686 -0.750000
-0.823500 -0.569356 0.390112
-0.209035 -0.592355 0.105795
0.250000 0.290728 0.589054
-0.518713 0.462794 -0.750000
-0.234955 0.250000 -0.505918
-0.027257 0.726206 -0.750000
-0.833043 -0.179194 0.747193
-0.773854 0.250000 -0.538305
0.055427 -0.085368 -0.250000
0.186173 0.498622 0.750000
-0.415962 -0.093498 -0.250000
-0.587467 -0.568702 0.607275
0.515931 1.250000 -0.061774
-0.776218 0.185514 -0.002134
-0.309206 0.343335 -0.750000
-0.650583 -0.465266 -0.250000
-0.326000 0.000000 -0.415917
-0.798450 0.966349 -0.750000
-1.000000 0.876115 -0.298338
-0.083165 -0.463714 0.922129
-1.000000 0.754347 -0.467183
-1.000000 0.645735 -0.396573
-0.445922 -0.053234 -0.250000
-1.019575 0.018721 0.146581
0.282767 0.386433 -0.750000
-0.024396 -0.500000 -0.146485
-0.721415 1.108665 -0.750000
0.169905 0.766886 -0.750000
0.070499 1.052339 0.750000
-0.609792 -0.171464 -0.250000
0.100850 -0.500000 0.345931
0.239417 -0.160112 0.750000
0.048391 -0.500000 0.585470
-0.934880 0.087860 -0.194352
-0.270421 -0.249752 -0.250000
-0.780789 0.143283 1.097506
-0.750000 0.524119 0.539387
0.020149 1.250000 -0.541406
0.303068 0.000000 -0.460293
-0.789479 1.250000 -0.383816
-0.297558 1.222568 -0.750000
-1.000000 0.688358 0.044070
-0.187890 0.000000 -0.389275
0.012411 0.250655 -0.750000
-0.500000 0.035413 -0.314688
-0.964598 -0.299373 0.032480
0.897083 1.215677 0.250000
-0.563851 -0.364110 -0.250000
-0.356811 -0.743384 0.495723
-0.750000 0.846236 0.596106
-0.646808 -0.500000 -0.245318
-0.892451 0.250000 -0.606471
-0.455458 0.074432 -0.500000
0.214303 0.316368 0.750000
-0.993373 -0.487423 0.150280
-0.833308 0.915470 -0.750000
-0.841675 1.146747 -0.750000
-0.519265 -0.306020 -0.250000
-0.729091 1.062313 -0.750000
-0.796447 -0.686705 0.304899
0.274128 1.250000 -0.621590
-0.678687 -0.500000 -0.020341
-0.681028 -0.367304 -0.250000
-0.683290 -0.505349 0.578765
-1.122435 -0.269837 0.100534
-0.772657 1.070846 -0.750000
-0.308920 1.033648 -0.750000
0.250000 -0.144984 -0.206762
0.500000 0.319229 0.250380
-0.258692 0.250000 -0.582875
0.500000 0.037409 0.438275
-0.986382 -0.185146 0.600929
-1.000000 0.515505 -0.007995
-0.993216 0.459583 -0.750000
-1.032824 0.005184 0.280949
0.380204 0.000000 -0.195912
-1.112903 -0.317630 0.360627
-1.047561 -0.041705 0.679298
0.211365 0.518228 -0.750000
-0.781657 -0.757812 0.251796
-0.506116 0.250000 -0.705052
0.171222 -0.500000 -0.062847
0.114527 -0.500000 0.733244
-0.855996 -0.052354 -0.160009
-0.436238 -0.627787 -0.070262
-0.750000 1.094495 0.742179
-0.544374 0.967643 -0.750000
0.314247 0.000000 -0.327497
-0.450479 0.053965 -0.500000
-0.620724 1.037108 -0.750000
0.144815 0.100734 0.750000
-0.665505 1.228835 -0.750000
-0.322179 0.561173 -0.750000
-1.168398 -0.133378 0.293209
-0.812842 -0.423484 0.536667
-0.985033 0.054025 0.403737
-0.831150 0.001121 -0.202392
-1.000000 0.578155 -0.503382
-0.870660 0.170917 0.768053
-0.898917 0.250000 -0.385426
-0.370635 -0.757511 0.136281
-0.381154 0.130036 -0.500000
0.126151 -0.474607 -0.250000
-0.863593 0.178140 0.168597
0.500000 0.224812 -0.233566
-1.000000 0.374414 -0.354421
-0.500000 0.023411 -0.437728
-0.847517 -0.595367 0.131336
-0.750000 0.096138 -0.193641
-1.127824 -0.272048 0.389678
-0.401703 -0.635832 -0.084291
-0.253624 -0.637925 -0.052986
-1.059001 -0.405362 0.327817
-0.604529 -0.705924 0.462956
-0.833784 -0.653977 0.301331
-0.557891 -0.948890 0.202756
-0.540875 -0.902145 0.337369
-0.720670 -0.285058 -0.250000
-0.353376 1.500000 -0.177520
0.035849 0.059331 -0.500000
-0.750000 0.470018 0.402260
-0.280977 -0.665880 0.138149
-0.875081 0.250000 -0.588911
-0.403371 0.302786 -0.750000
-0.682097 0.739652 -0.750000
0.376796 0.000000 0.069764
-0.587125 0.286062 0.960064
-1.070714 -0.255910 0.065374
0.170492 -0.500000 0.713462
-0.467494 1.172784 -0.750000
-0.512379 -0.902377 0.133223
-0.469424 0.106855 -0.500000
-0.676461 -0.585905 0.509497
-1.000000 0.692369 -0.248682
-0.887300 0.250000 -0.115196
-0.297387 -0.502553 -0.207994
0.782068 0.250000 -0.605904
-1.000000 0.477136 -0.327704
-0.378549 0.153496 -0.500000
-0.527474 -0.367235 0.851221
-1.000000 0.748271 -0.017302
-0.425466 0.038546 -0.500000
-0.409925 0.162131 -0.500000
0.758942 0.250000 0.135567
-0.114148 -0.500000 -0.162056
-0.696621 0.551317 -0.750000
-0.201010 -0.328486 1.089059
-0.007363 0.428634 -0.750000
-0.541780 -0.610356 -0.023493
-1.058713 -0.021276 0.143089
-0.750000 -0.346186 0.671246
-0.148819 1.137268 -0.750000
-1.089606 -0.052851 0.015069
-0.666244 -0.500000 0.636675
-0.750000 -0.474733 -0.143554
-0.915287 -0.649949 0.230333
-1.070054 -0.468041 0.258909
-0.873834 -0.530771 0.380112
-1.000000 0.403983 -0.230776
0.053357 -0.471474 -0.250000
-0.774529 0.164320 1.122972
-0.843264 0.250000 -0.479434
-1.000000 0.515264 -0.690852
0.550447 0.250000 0.215451
-1.000000 0.777360 -0.123714
0.199048 0.767194 -0.750000
-0.035066 -0.292227 -0.250000
-1.171484 -0.328196 0.158482
-0.660411 0.250000 -0.370981
-0.667970 -0.825156 0.292953
-1.000000 1.024401 0.230869
-1.155480 -0.120177 0.414955
-0.828323 0.250000 -0.320149
-0.738236 0.306257 0.869572
0.333748 1.000000 0.416946
-1.057895 -0.255529 0.469324
-0.904262 -0.005985 -0.159542
-0.377697 0.000000 -0.269970
-0.514195 0.671203 -0.750000
0.431845 0.000000 0.433482
0.146636 -0.500000 -0.196266
-0.697342 0.219989 -0.250000
0.077823 0.081531 -0.500000
0.088661 0.000000 -0.294663
-0.408872 0.602407 -0.750000
-1.045264 -0.543513 0.210887
-1.096991 -0.060398 0.034184
-0.416420 -0.804305 0.022027
-0.742693 0.250000 -0.465878
-0.825465 0.217108 0.951788
-0.035844 0.600480 -0.750000
0.414054 0.346392 -0.750000
-0.750000 1.374243 -0.242170
0.250000 -0.255454 -0.131460
-0.965898 -0.231146 -0.004001
-0.182681 -0.151695 -0.250000
-0.905202 0.135615 -0.115128
0.016630 1.500000 0.264043
-0.256169 1.250000 -0.681925
-0.535808 1.127191 -0.750000
-1.000000 0.606130 -0.622441
0.372881 1.209016 -0.750000
-0.335658 -0.553188 -0.164529
0.500000 0.231639 0.457566
-0.750000 0.715030 0.591317
-0.944752 0.439476 -0.750000
-0.786961 0.000615 0.958068
-0.750000 -0.018957 -0.203587
-1.000000 0.691162 -0.533887
-0.750000 1.313112 0.516403
-0.643799 -0.436917 -0.250000
-0.781889 1.177466 -0.750000
0.217512 -0.038364 -0.250000
-0.834483 0.250000 -0.585206
0.039477 1.500000 -0.181866
-0.775294 0.409604 0.250000
0.083385 0.349414 -0.750000
-0.977272 0.061957 -0.126086
-0.354469 -0.740991 0.447728
-0.638717 0.615922 -0.750000
-0.659399 -0.500000 -0.030456
0.102166 -0.500000 0.000805
-0.590730 -0.499477 0.750000
0.795570 0.292838 -0.750000
-0.750000 0.355649 0.432868
-0.750000 0.631260 0.496905
0.250000 0.614136 0.658816
-1.111967 -0.075705 0.536617
-0.379993 0.202263 -0.500000
-0.763882 -0.471023 0.018998
-1.000000 0.392499 -0.142784
-0.923931 0.492238 -0.750000
-0.946354 -0.464782 0.112878
-0.558354 0.595503 -0.750000
-1.000000 1.217349 -0.486746
-0.757105 -0.009411 -0.167370
-0.048343 0.550296 -0.750000
0.441927 1.250000 -0.125237
-0.971801 1.250000 0.031385
0.544362 1.250000 -0.178466
0.617556 0.250000 -0.321190
-0.242339 0.250000 -0.501727
0.250000 -0.037573 -0.081242
-1.157726 -0.123659 0.039703
-1.000000 1.199443 -0.704523
-0.437467 0.474768 0.777461
-0.449313 -0.560917 -0.099726
0.279750 1.250000 -0.638187
-1.000000 0.948685 -0.109915
-0.174126 0.491701 -0.750000
-1.000000 0.252038 -0.106573
0.250000 -0.322438 -0.226211
-0.059635 0.556916 -0.750000
-1.274985 -0.242315 0.276405
-0.193933 -0.576920 0.804110
0.854041 0.250000 -0.287053
0.645617 0.250000 -0.455807
0.088539 -0.500000 0.647673
-0.471186 -0.055970 -0.250000
-0.750000 0.145698 -0.163468
-0.902775 0.250000 -0.156276
-0.525580 -0.242498 0.969919
-1.051936 -0.014350 -0.001479
0.500000 0.093152 0.438800
-0.700810 0.361675 -0.750000
-1.179804 -0.386837 0.194867
-0.824011 -0.208807 -0.091816
0.250000 -0.152920 -0.155603
-0.262452 -0.646948 -0.078764
-0.963270 0.076268 0.308904
-0.936167 0.250000 -0.235128
-0.635029 -0.703194 0.076804
0.033368 1.500000 0.094693
-0.237093 1.500000 0.179899
-0.899749 -0.440471 0.074786
-0.858298 0.183551 0.178912
-0.750000 -0.153977 -0.164415
0.176969 -0.500000 -0.028461
-0.498628 0.936401 0.750000
-0.167606 1.500000 0.288883
0.183816 0.250000 -0.546843
-0.128618 -0.156057 -0.250000
-0.576771 -0.968187 0.217905
-0.086987 -0.131846 -0.250000
-0.566817 0.250000 -0.574681
-1.000000 1.085573 -0.292276
-0.909868 -0.079095 -0.116719
-0.720648 0.136003 -0.250000
-0.403526 -0.627222 -0.088010
-0.374899 -0.761870 0.574966
-1.000000 0.624994 0.155890
