0.06034068018198013 0.3987617790699005 0.061613474041223526 1.6019439499359578e-05 0.17367902398109436 -0.9848023056983948
0.349111407995224 -0.22977562248706818 0.11114992946386337 0.20629705488681793 -0.17001155018806458 -0.963606595993042
0.14747340977191925 0.13281969726085663 0.17721346020698547 -0.0 0.0 1.0
0.22674579918384552 -0.12320475280284882 0.016535039991140366 -0.0001536291529191658 -0.9848435521125793 0.1734447479248047
-0.11779378354549408 -0.4294162392616272 -0.008795000612735748 1.753956285766023e-10 -0.9967651963233948 0.08036939799785614
0.14456595480442047 -0.027059026062488556 -0.19146960973739624 0.8892716765403748 -0.08877130597829819 -0.44868212938308716
0.17179825901985168 -0.003930793609470129 -0.1393936425447464 0.8055866956710815 -0.10040061175823212 -0.5839089751243591
0.0384417399764061 -0.26514932513237 0.17071133852005005 0.0 0.0 1.0
0.26066529750823975 0.11585365235805511 0.1154121607542038 0.3455108404159546 -0.1604965627193451 -0.9245880246162415
-0.008107895031571388 0.3753260672092438 0.07207070291042328 -0.658415675163269 0.752327024936676 -0.022198248654603958
0.17175458371639252 0.31300416588783264 0.042099542915821075 -0.00011376856855349615 0.1737351268529892 -0.9847923517227173
-0.4875279366970062 0.06786999106407166 -0.018117403611540794 -1.0 -0.0 0.0
-0.3091561496257782 -0.11591232568025589 -0.00474704522639513 -0.6922680139541626 -0.7196217179298401 0.05393966659903526
0.4340376555919647 -0.09340724349021912 0.04901145398616791 1.0 -0.0 0.0
-0.3363534212112427 -0.12350627034902573 -0.25138694047927856 -0.5049526691436768 -0.8526864051818848 0.13397233188152313
0.10595007240772247 -0.28276705741882324 0.17595629394054413 0.0 0.0 1.0
0.42568185925483704 -0.06884366273880005 0.17631183564662933 0.0 -0.0 1.0
-0.2910028398036957 0.05217481777071953 -0.2517835795879364 -0.0027970485389232635 0.9888514876365662 -0.1488795131444931
-0.289107084274292 0.04721699655056 -0.24065856635570526 0.0001489365240558982 0.9902855753898621 -0.13904835283756256
0.3944527208805084 0.5394264459609985 0.09271302819252014 -0.07913077622652054 0.9966044425964355 -0.022758163511753082
0.08185573667287827 -0.19303977489471436 -0.08715905994176865 0.8611605167388916 -0.0921459048986435 -0.49991169571876526
-0.3809109628200531 0.044780660420656204 -0.2725973129272461 0.00016950952704064548 0.9890104532241821 -0.14784568548202515
0.12027347087860107 -0.09280001372098923 -0.31624749302864075 0.0 -0.17377716302871704 -0.9847850203514099
-0.17046667635440826 0.11065629124641418 -0.023607352748513222 -0.019036024808883667 0.7145308256149292 -0.6993449926376343
-0.09632444381713867 0.13451825082302094 0.006250512320548296 -0.0009167485404759645 0.569264829158783 -0.8221536874771118
-0.433227002620697 0.05637824535369873 -0.1954173892736435 0.018379682675004005 0.993249237537384 -0.11453495174646378
0.10837463289499283 0.33852678537368774 0.17708095908164978 0.0 0.0 1.0
-0.23895615339279175 -0.243055522441864 -0.1329021453857422 -0.9891865849494934 -0.1456439048051834 0.017252996563911438
-0.3101532459259033 0.11097870022058487 0.1744822859764099 -0.3830927014350891 0.9237040877342224 -0.0032791264820843935
0.43049341440200806 0.07716520130634308 0.10565658658742905 1.0 0.0 0.0
-0.006834432482719421 -0.08861575275659561 0.17867615818977356 0.0 0.0 1.0
-0.23974229395389557 -0.23864316940307617 0.0966753363609314 -0.9891635179519653 -0.14676524698734283 0.003934849053621292
-0.3254239857196808 -0.09109222888946533 0.07223674654960632 -0.5171089768409729 -0.8555166721343994 0.02626061998307705
-0.11243408173322678 0.2711670696735382 0.1723249852657318 -0.7598881721496582 0.6500421762466431 -0.003891517175361514
-0.07017100602388382 -0.04926832765340805 -0.3217540383338928 -1.1148211342515424e-05 -0.17368026077747345 -0.9848020672798157
-0.06727209687232971 -0.4327162802219391 -0.08106093108654022 0.19322891533374786 -0.9758950471878052 0.10144679248332977
0.04678456857800484 0.4162546992301941 0.09650791436433792 -0.5737236142158508 0.8187558650970459 -0.021908419206738472
0.07109704613685608 0.1373581886291504 0.16791458427906036 0.0 0.0 1.0
0.09358315169811249 0.29539692401885986 0.03801421821117401 7.36561996745877e-05 0.17353884875774384 -0.9848270416259766
-0.24498790502548218 0.143899068236351 0.12407191842794418 -0.5021200180053711 0.8646928071975708 -0.013481167145073414
-0.48928505182266235 0.0614112913608551 -0.04367155209183693 -1.0 -0.0 -0.0
0.41111332178115845 0.30357658863067627 0.17663052678108215 0.0 -0.0 1.0
0.4338191747665405 0.25750792026519775 0.16307827830314636 1.0 0.0 0.0
-0.277127742767334 0.058288075029850006 0.17493896186351776 -0.0 0.0 1.0
-0.19798685610294342 -0.4208671748638153 0.06929242610931396 -0.2014261782169342 -0.9783496260643005 0.0475335530936718
0.1842098832130432 0.4843767583370209 0.1719205677509308 0.0 0.0 1.0
-0.24150368571281433 -0.22061854600906372 0.00683942437171936 -0.9691919684410095 -0.24579200148582458 0.01590990088880062
0.16274890303611755 0.011409197002649307 -0.11516902595758438 -0.000527645053807646 0.9849109649658203 -0.1730605512857437
-0.2825334072113037 0.07220973074436188 -0.06419102847576141 0.021893568336963654 0.8977358937263489 -0.4399896562099457
0.427937775850296 0.5276570916175842 0.1310798078775406 1.0 -0.0 0.0
0.2068435400724411 0.38444334268569946 0.17426154017448425 -0.0 0.0 1.0
-0.19028091430664062 0.1455915868282318 0.1808498650789261 0.0 0.0 1.0
0.20460820198059082 0.4556586742401123 0.1736108958721161 -0.0 -0.0 1.0
0.28264984488487244 -0.24580584466457367 0.09735413640737534 0.3826855719089508 -0.1603485494852066 -0.9098571538925171
0.20838643610477448 0.1983489990234375 0.17751625180244446 0.0 0.0 1.0
-0.23087827861309052 -0.3811991810798645 0.1598438024520874 -0.9808081984519958 -0.19497354328632355 0.0007758209249004722
0.25102972984313965 0.4598390758037567 0.1740580052137375 -0.0 0.0 1.0
-0.45795702934265137 -0.06277638673782349 0.17572525143623352 0.0 -0.0 1.0
0.10214000940322876 0.44823330640792847 0.07456564903259277 -0.505364716053009 0.8625997304916382 -0.022984309121966362
0.29691165685653687 -0.26798295974731445 0.11073005199432373 0.3393363356590271 -0.1630340814590454 -0.926429033279419
0.20068177580833435 0.2079164683818817 0.06873178482055664 0.45633870363235474 -0.16322380304336548 -0.8747073411941528
-0.20869559049606323 0.05765099450945854 -0.18113590776920319 0.00022617158538196236 0.9926667809486389 -0.12088251113891602
0.09012020379304886 0.06917041540145874 -0.0851965919137001 0.034243058413267136 0.9685781002044678 -0.24634116888046265
-0.19129054248332977 -0.4237560033798218 0.11876549571752548 -0.09539470076560974 -0.9911866188049316 0.09191840887069702
-0.04705151543021202 -0.3786899447441101 0.17427779734134674 0.0 0.0 1.0
-0.1302945911884308 0.0923662856221199 -0.039049308747053146 0.019115179777145386 0.8606036305427551 -0.5089165568351746
0.20018476247787476 0.48190778493881226 0.17417477071285248 0.0 -0.0 1.0
-0.03005603700876236 -0.36628401279449463 0.06582671403884888 1.0 0.0 -0.0
0.11902792006731033 -0.2931124269962311 0.1377362161874771 0.12133132666349411 -0.9925510883331299 0.011000155471265316
-0.29337894916534424 -0.1312289535999298 -0.12134958803653717 -0.6266694664955139 -0.7686899304389954 0.12806670367717743
-0.483830988407135 -0.05093492567539215 0.17326539754867554 -0.0 -0.0 1.0
-0.1447538137435913 -0.4475298523902893 -0.18522745370864868 0.0 -0.9890986680984497 0.14725451171398163
-0.4909190237522125 0.030203908681869507 0.01930944435298443 -1.0 0.0 -0.0
0.254459023475647 -0.14716637134552002 0.06959699839353561 0.4069388508796692 -0.17207632958889008 -0.8971011638641357
-0.2275410145521164 -0.3715941905975342 -0.2666458785533905 -0.00011330324923619628 -0.17366145551204681 -0.9848054051399231
-0.3098672926425934 0.06202876195311546 -0.12612974643707275 3.7812438677065074e-05 0.9945714473724365 -0.10405661910772324
-0.1223718449473381 0.09124589711427689 -0.04610240459442139 0.019115179777145386 0.8606036305427551 -0.5089165568351746
0.17789539694786072 0.09505743533372879 0.003356558969244361 0.00024426120216958225 0.9848255515098572 -0.17354683578014374
-0.052235014736652374 -0.1798415184020996 -0.29980817437171936 2.3871038138167933e-05 -0.17369422316551208 -0.9847996234893799
0.10476815700531006 -0.18095587193965912 -0.06243814900517464 0.8378648161888123 -0.0947675034403801 -0.5375887155532837
0.18079154193401337 0.2308703362941742 0.0518791563808918 0.5204100012779236 -0.13152138888835907 -0.8437271118164062
-0.03965337574481964 -0.4184587597846985 -0.05980924144387245 0.8270758390426636 -0.5595727562904358 0.053140051662921906
-0.029093986377120018 0.35345956683158875 0.1489555835723877 -0.6883641481399536 0.7253653407096863 0.00019439778407104313
0.43138110637664795 -0.029007554054260254 -0.005115479696542025 1.0 -0.0 0.0
0.3283635079860687 0.32927924394607544 0.0928097516298294 0.1768077164888382 -0.1559884399175644 -0.9718058109283447
0.39873409271240234 -0.11421205848455429 0.0075046406127512455 0.11477667093276978 -0.1727421134710312 -0.9782568216323853
-0.48617470264434814 0.05079071968793869 0.16617728769779205 -1.0 0.0 0.0
-0.0806339681148529 -0.16300749778747559 -0.30153337121009827 -6.430513894883916e-05 -0.17368346452713013 -0.9848015904426575
-0.07963409274816513 0.06244416907429695 -0.1855154037475586 0.005913237109780312 0.9926443099975586 -0.12092293053865433
0.28733667731285095 -0.08739249408245087 0.17692071199417114 0.0 0.0 1.0
-0.48912614583969116 -0.0067244116216897964 -0.23647189140319824 -1.0 0.0 0.0
-0.4909360706806183 -0.02501397579908371 -0.048269711434841156 -1.0 0.0 0.0
0.2235744595527649 0.14696796238422394 0.0906808003783226 0.42370399832725525 -0.13555662333965302 -0.895599901676178
0.18734121322631836 0.12829901278018951 0.1752576380968094 0.0 0.0 1.0
0.11790865659713745 -0.2897186577320099 0.17368310689926147 0.0 0.0 1.0
0.3666073977947235 0.1123150959610939 0.09237172454595566 -0.000579649640712887 0.9846048355102539 -0.17479446530342102
0.4316399395465851 -0.055424995720386505 0.08243376761674881 1.0 -0.0 0.0
0.18792779743671417 0.4702458381652832 0.18040092289447784 0.0 0.0 1.0
-0.48648059368133545 -0.07838407903909683 -0.12283092737197876 0.001292521134018898 -0.9943527579307556 0.10611744970083237
-0.08604580909013748 0.29675737023353577 0.0872778594493866 -0.7579264044761658 0.652070939540863 -0.0187337938696146
-0.43728873133659363 -0.09674759954214096 -0.2775742709636688 0.0016598883084952831 -0.9871095418930054 0.16003739833831787
-0.17960280179977417 -0.27981895208358765 -0.2803818881511688 0.0001026399404508993 -0.1736374944448471 -0.9848095774650574
-0.4861091673374176 -0.07878195494413376 -0.04442490637302399 6.0085691075073555e-05 -0.9967227578163147 0.08089310675859451
-0.04542582854628563 0.3341691493988037 0.15121974050998688 -0.709198534488678 0.7049872279167175 -0.005517217796295881
-0.1437220424413681 -0.073386549949646 -0.31913357973098755 -0.0004946510889567435 -0.1729663908481598 -0.9849275946617126
0.23095108568668365 -0.26587632298469543 0.07951173186302185 0.4658898711204529 -0.1537095159292221 -0.871389627456665
0.1961972564458847 -0.27380192279815674 0.17247039079666138 0.08828228712081909 -0.9960944652557373 0.0013986093690618873
0.035979948937892914 -0.24032364785671234 -0.21943843364715576 0.9904179573059082 -0.02397266961634159 -0.13600608706474304
0.39493870735168457 0.05369926244020462 0.07137250900268555 0.046503353863954544 -0.1571543961763382 -0.9864785671234131
-0.43507441878318787 -0.03741542994976044 -0.3274690806865692 4.6235931222327054e-05 -0.17357590794563293 -0.9848204851150513
-0.13160789012908936 -0.40292179584503174 0.17473751306533813 0.0 -0.0 1.0
0.07970911264419556 -0.2016531080007553 -0.08720322698354721 0.8611605167388916 -0.0921459048986435 -0.49991169571876526
-0.3279942274093628 -0.11912023276090622 -0.24082966148853302 -0.508175790309906 -0.849879801273346 0.13950535655021667
-0.23461885750293732 -0.38098040223121643 -0.01524767279624939 -0.9997492432594299 -0.0018254306633025408 -0.022316791117191315
-0.04010184109210968 -0.21110273897647858 0.1778194010257721 -0.0 0.0 1.0
0.31328466534614563 0.06836316734552383 0.17828765511512756 0.0 -0.0 1.0
0.40724581480026245 0.0320342555642128 -0.006235914304852486 0.0008243926567956805 0.9849279522895813 -0.17296293377876282
-0.023051217198371887 -0.36639419198036194 -0.14028091728687286 1.0 0.0 0.0
0.30545902252197266 0.30823078751564026 0.1781967431306839 -0.0 0.0 1.0
-0.40354782342910767 0.07438620924949646 0.18010757863521576 0.0 0.0 1.0
0.43402722477912903 -0.046822696924209595 0.084812693297863 1.0 -0.0 0.0
-0.1759270876646042 -0.13996820151805878 0.17655836045742035 0.0 0.0 1.0
-0.27514171600341797 -0.12962713837623596 0.1687057912349701 0.00029451336013153195 -2.4877344912965782e-05 1.0
-0.46209901571273804 -0.082059845328331 -0.14988186955451965 -0.0027234486769884825 -0.9928337931632996 0.1194726750254631
0.0393730029463768 -0.2270684689283371 -0.17368173599243164 0.9563852548599243 -0.06360410153865814 -0.2850995361804962
-0.4023001492023468 0.07050866633653641 -0.08722694218158722 -0.0037914933636784554 0.9857351183891296 -0.16826121509075165
0.3930153250694275 0.03987780958414078 0.035972919315099716 1.8015622117673047e-05 0.9848660230636597 -0.1733173131942749
-0.12318696081638336 0.08855018764734268 -0.03288853541016579 -0.0006931371754035354 0.8466557860374451 -0.5321404933929443
-0.4670426547527313 -0.058540668338537216 0.08459692448377609 -0.0015929087530821562 -0.9994909763336182 0.03186071664094925
0.321524441242218 0.3051202595233917 0.0978153645992279 0.230295330286026 -0.1691611111164093 -0.9583050608634949
0.27391546964645386 0.25562772154808044 0.18120819330215454 -0.0 -0.0 1.0
-0.19615505635738373 -0.23111800849437714 -0.2875654995441437 7.44350763852708e-05 -0.17360343039035797 -0.9848155975341797
-0.11024797707796097 0.08312706649303436 -0.06398604810237885 0.03611096739768982 0.9191024303436279 -0.3923603892326355
0.2689831256866455 0.3455072045326233 0.07362937927246094 0.3305090665817261 -0.1637243926525116 -0.9294934868812561
0.1946193277835846 0.1928642988204956 0.06517964601516724 0.504311740398407 -0.15804575383663177 -0.8489353060722351
0.3786296844482422 0.4430590569972992 0.17556239664554596 0.0 -0.0 1.0
-0.04508094862103462 -0.4372749924659729 -0.1866370588541031 0.5503183603286743 -0.8253477215766907 0.12629638612270355
0.24896104633808136 -0.1383102983236313 -0.03316348046064377 0.00024239921185653657 -0.9847440123558044 0.17400893568992615
-0.04081195965409279 -0.43274956941604614 -0.14889933168888092 0.5527144074440002 -0.826056718826294 0.11016837507486343
-0.4021514356136322 -0.1051141768693924 -0.27765655517578125 -0.14655068516731262 -0.9760390520095825 0.16084374487400055
0.0713978260755539 0.17842356860637665 0.1781531721353531 0.0 -0.0 1.0
-0.027979031205177307 0.04122133553028107 -0.29380372166633606 -0.0004849315155297518 0.9873469471931458 -0.1585741937160492
0.3217566907405853 0.44631803035736084 0.1764996200799942 0.0 0.0 1.0
0.43014517426490784 0.31598740816116333 0.15201742947101593 1.0 -0.0 0.0
0.3434927463531494 0.42345938086509705 0.08556506037712097 0.17435473203659058 -0.16725562512874603 -0.9703742265701294
-0.3791387975215912 0.08824092894792557 0.04080769792199135 -0.2335779070854187 0.971660852432251 -0.03628363087773323
0.2513943314552307 -0.18928563594818115 0.17217493057250977 0.0 0.0 1.0
0.3506125211715698 0.5067002773284912 0.07933752983808517 2.8721233320538886e-05 0.17362847924232483 -0.9848112463951111
0.2686157524585724 0.1938381791114807 0.10390979796648026 0.33131593465805054 -0.1619325876235962 -0.9295200705528259
0.4327530860900879 0.3122473657131195 0.11400362849235535 1.0 0.0 0.0
0.25499996542930603 0.18992650508880615 0.10151255130767822 0.35339289903640747 -0.1630910187959671 -0.9211486577987671
-0.3544510006904602 0.09177554398775101 -0.02445407584309578 -0.2900959551334381 0.9546242952346802 -0.06735531240701675
0.11692166328430176 -0.2814635932445526 0.1622580587863922 0.12130323797464371 -0.9925546050071716 0.010993890464305878
-0.18690244853496552 0.0312061570584774 -0.3319205045700073 -1.0960585314023774e-05 -0.17369665205478668 -0.9847991466522217
-0.015093067660927773 0.36737242341041565 0.061750661581754684 -0.6624589562416077 0.7485947012901306 -0.027459075674414635
0.2532171905040741 0.20093917846679688 0.09519083797931671 0.35350993275642395 -0.16389060020446777 -0.9209617376327515
-0.3796113431453705 0.061563871800899506 -0.09440325945615768 1.7908806659860943e-09 0.9875483512878418 -0.1573159545660019
-0.0641876757144928 -0.05917266756296158 -0.32237938046455383 -4.407009691931307e-05 -0.1736498475074768 -0.9848074913024902
-0.3305174708366394 -0.09772122651338577 -0.05913322791457176 -0.5134977698326111 -0.8550685048103333 0.07195799797773361
-0.23766198754310608 -0.3407384753227234 0.11541111022233963 -1.0 0.0 0.0
-0.28790533542633057 0.10449276119470596 -0.024643735960125923 -0.03769839182496071 0.8002781271934509 -0.5984427332878113
-0.2221297174692154 -0.40064775943756104 0.1620192527770996 -0.8323190808296204 -0.5542910695075989 0.0025192599277943373
0.14623266458511353 -0.14457663893699646 -0.09678079932928085 0.0004394327406771481 -0.9847419857978821 0.17402026057243347
-0.050168201327323914 0.33487775921821594 0.08903676271438599 -0.7207215428352356 0.6929646730422974 -0.01898452453315258
0.35408809781074524 0.39826035499572754 0.09281610697507858 0.15453006327152252 -0.18068428337574005 -0.971325695514679
0.3685242235660553 0.1617211252450943 0.1720787137746811 0.0 -0.0 1.0
-0.026416689157485962 -0.38487857580184937 0.016249841079115868 0.9799931049346924 -0.1986224353313446 0.012746678665280342
-0.3765932619571686 -0.07291710376739502 0.15119679272174835 -0.27523547410964966 -0.9608463048934937 0.03193394094705582
-0.25286656618118286 0.13488321006298065 0.021066036075353622 -0.5002708435058594 0.865071713924408 -0.037148911505937576
-0.3028152883052826 0.03421834111213684 -0.30823108553886414 6.931369716767222e-05 0.9863681197166443 -0.1645534336566925
-0.23702648282051086 -0.2750301957130432 -0.037014685571193695 -1.0 -0.0 0.0
-0.3401466906070709 -0.08456774055957794 0.17106428742408752 -0.48925280570983887 -0.8719940185546875 0.016066383570432663
0.361898809671402 -0.12108669430017471 0.09919580072164536 0.16099913418293 -0.17130312323570251 -0.9719744920730591
0.43465977907180786 0.0787675753235817 0.0849856436252594 1.0 0.0 0.0
0.08094621449708939 -0.0037549398839473724 -0.2295023649930954 -0.0005752028082497418 0.984653890132904 -0.1745176613330841
0.3734312057495117 -0.1181049570441246 0.047019585967063904 -0.0005720602930523455 -0.9847100973129272 0.17420025169849396
-0.1360708773136139 -0.42823123931884766 -0.25196266174316406 2.8140708309365436e-05 -0.17364242672920227 -0.9848088026046753
-0.0210884902626276 -0.3289671540260315 -0.1954442858695984 0.17617130279541016 -0.9738965630531311 0.14314068853855133
0.07525958120822906 0.105369433760643 0.17828546464443207 0.0 0.0 1.0
-0.027313001453876495 -0.3897431194782257 0.1364937275648117 0.7699254155158997 -0.5150411128997803 0.37675926089286804
0.3106878399848938 -0.12039929628372192 0.02841588668525219 0.0007606616127304733 -0.9847539067268372 0.17395153641700745
-0.10451514273881912 -0.06585045903921127 0.173029825091362 0.0 -0.0 1.0
0.25904232263565063 -0.06767227500677109 0.17595136165618896 0.0 -0.0 1.0
0.11223170161247253 -0.1773330718278885 -0.29037463665008545 0.0 -0.9849323034286499 0.1729406863451004
0.2900297939777374 0.5284711718559265 0.13812263309955597 -0.19614504277706146 0.9804434180259705 -0.01605568453669548
-0.17207485437393188 0.04686211794614792 -0.2539772093296051 0.0007266676984727383 0.9896352291107178 -0.1436024159193039
-0.4862655997276306 0.02230401523411274 -0.2603857219219208 -1.0 -0.0 -0.0
0.2623421549797058 -0.12268377095460892 0.03248981386423111 0.00030086407787166536 -0.9847354292869568 0.17405763268470764
-0.31146666407585144 0.11772287636995316 0.060474835336208344 -0.3897443413734436 0.9203073978424072 -0.03367142751812935
0.13820107281208038 0.09396249055862427 0.01860528066754341 -1.1433003237470984e-05 0.9848015904426575 -0.17368324100971222
-0.28143367171287537 -0.023461736738681793 -0.3296588659286499 4.3511368858162314e-05 -0.17371927201747894 -0.9847952127456665
-0.06469066441059113 -0.4466364085674286 -0.19042618572711945 0.19400563836097717 -0.9702910780906677 0.1445581018924713
0.1113964393734932 -0.28971967101097107 0.030198827385902405 0.12660333514213562 -0.9905906915664673 0.051978401839733124
-0.22814609110355377 -0.17484386265277863 0.17516270279884338 0.0 0.0 1.0
-0.25561976432800293 -0.16385723650455475 0.16940759122371674 -1.5559162420686334e-05 4.223989162710495e-05 1.0
-0.3031925559043884 0.1156078651547432 0.004019506275653839 -0.38271597027778625 0.9227280616760254 -0.04584239795804024
-0.40784475207328796 -0.06382929533720016 0.10349126905202866 -0.08437605947256088 -0.9964286684989929 0.0032633026130497456
0.012193388305604458 -0.03935810178518295 -0.32307690382003784 -7.208387160062557e-06 -0.1736694574356079 -0.9848039746284485
-0.011994993314146996 0.016112452372908592 -0.3315093219280243 5.075394074083306e-05 -0.17375268042087555 -0.9847893118858337
-0.2363506257534027 -0.3661196827888489 -0.01497720368206501 -0.9998363256454468 -0.013342107646167278 -0.012216822244226933
-0.024335402995347977 -0.3872208297252655 -0.242146834731102 1.0 -0.0 0.0
-0.0816364660859108 0.04379676282405853 -0.2968038022518158 -0.0007928183185867965 0.9874671697616577 -0.15782231092453003
-0.23082734644412994 -0.36046871542930603 0.050046272575855255 -1.0 0.0 -0.0
0.14998523890972137 0.42148512601852417 0.0665275976061821 -6.533255145768635e-06 0.17368003726005554 -0.9848021268844604
0.07668747007846832 -0.221790611743927 -0.09096138924360275 0.884649395942688 -0.08101201802492142 -0.45916494727134705
-0.18139706552028656 -0.22015507519245148 -0.28782883286476135 -6.506897625513375e-05 -0.17360052466392517 -0.9848161339759827
0.02643599547445774 0.05832575261592865 -0.12142618000507355 0.0003712936013471335 0.9951422214508057 -0.09844635426998138
0.11567775905132294 0.4608503580093384 0.09319406747817993 -0.4645634591579437 0.8853424787521362 -0.018696479499340057
-0.11329006403684616 0.06010576710104942 0.17676247656345367 0.0 0.0 1.0
0.3603757619857788 0.4658413827419281 0.07614842057228088 0.1509803682565689 -0.17442290484905243 -0.9730269908905029
0.4372018277645111 0.30990588665008545 0.13407433032989502 1.0 -0.0 0.0
0.07986529916524887 -0.26281285285949707 -0.07148715853691101 0.8621400594711304 -0.0879947692155838 -0.4989703595638275
-0.09767203778028488 0.24381372332572937 0.1735718846321106 0.0 -0.0 1.0
-0.49147936701774597 -0.0022516159806400537 -0.10135972499847412 -1.0 0.0 0.0
0.18364286422729492 -0.2839868366718292 0.04925207048654556 0.0989575982093811 -0.9939382076263428 0.04789900407195091
0.21887032687664032 0.0859474241733551 0.007633143570274115 0.5187513828277588 -0.14849981665611267 -0.8419291973114014
0.30716201663017273 0.026120489463210106 -0.028308480978012085 0.0004576996434479952 0.9848296046257019 -0.1735239028930664
0.1797100305557251 0.17280429601669312 0.17569445073604584 0.0 0.0 1.0
-0.13355745375156403 -0.3425867259502411 -0.26692256331443787 1.932124541781377e-05 -0.17363174259662628 -0.9848106503486633
0.20007848739624023 0.031756069511175156 0.002121168188750744 -0.0007285014144144952 0.9847866892814636 -0.17376583814620972
-0.2550254464149475 -0.19310586154460907 -0.17610351741313934 -0.8559771180152893 -0.5016298294067383 0.1251821219921112
-0.1371043622493744 0.18747051060199738 0.174264594912529 0.0 -0.0 1.0
-0.41145291924476624 0.040302153676748276 -0.3168666660785675 0.0001047822370310314 0.9863514304161072 -0.16465383768081665
0.009193048812448978 0.04060989245772362 0.17574948072433472 0.0 0.0 1.0
0.3685513734817505 -0.014765352010726929 -0.01866333559155464 0.23978550732135773 -0.18968358635902405 -0.952114999294281
-0.27763140201568604 -0.15833236277103424 -0.2987973690032959 -8.476995571982116e-05 -0.17378626763820648 -0.9847833514213562
-0.48785969614982605 0.03328849375247955 0.09065162390470505 -1.0 0.0 0.0
-0.234536275267601 -0.3895573318004608 -0.053763002157211304 -0.9587416052818298 -0.2782675325870514 -0.05815332755446434
0.037773147225379944 0.022031234577298164 -0.23572927713394165 0.9760257005691528 -0.021490061655640602 -0.21659184992313385
0.12361413240432739 0.3091798722743988 0.0477476492524147 1.5173009160207585e-05 0.17331750690937042 -0.9848660230636597
-0.43094736337661743 -0.06945111602544785 0.14747026562690735 0.002197371795773506 -0.9999812841415405 0.0057105571031570435
-0.12524011731147766 -0.09200894832611084 0.1763000339269638 0.0 -0.0 1.0
-0.33003130555152893 -0.0871012881398201 0.016934767365455627 -0.44511714577674866 -0.8924411535263062 0.07361750304698944
0.19762741029262543 0.2772873342037201 0.1741611361503601 -0.0 0.0 1.0
0.10583359748125076 0.08429021388292313 -0.06176600605249405 0.0027019106782972813 0.9169102907180786 -0.39908409118652344
-0.23901504278182983 -0.24659262597560883 -0.10877488553524017 -0.9931602478027344 -0.1160513162612915 0.012832855805754662
0.4072872996330261 0.3558712303638458 0.1722506433725357 0.0 0.0 1.0
-0.18524613976478577 0.08610845357179642 -0.046026576310396194 -0.026662398129701614 0.832071840763092 -0.5540265440940857
-0.00939183309674263 0.29616424441337585 0.17234526574611664 0.0 0.0 1.0
-0.255167156457901 -0.17705681920051575 0.08849538117647171 -0.9046341776847839 -0.4260261654853821 0.011779221706092358
0.16368915140628815 -0.13517868518829346 -0.042225901037454605 -0.00023576802050229162 -0.9848468899726868 0.1734260618686676
0.15254294872283936 0.1974528431892395 0.1748148798942566 0.0 -0.0 1.0
0.2204461246728897 0.2994880974292755 0.06010669469833374 0.429614782333374 -0.15489234030246735 -0.8896288275718689
-0.35732927918434143 -0.07640848308801651 0.11193909496068954 -0.3363906443119049 -0.9411320090293884 0.033343225717544556
-0.30946817994117737 0.10731732100248337 0.13931691646575928 -0.3870646059513092 0.9219537973403931 -0.013494808226823807
-0.12371202558279037 0.051170095801353455 -0.2342362105846405 -0.0007116574561223388 0.9900847673416138 -0.14046922326087952
-0.4853682518005371 -0.03461876139044762 -0.2072851061820984 -1.0 0.0 0.0
-0.054214850068092346 -0.19172443449497223 0.17882844805717468 0.0 -0.0 1.0
-0.1849365234375 0.19341473281383514 0.13333992660045624 -0.6387428641319275 0.7693686485290527 -0.008908748626708984
-0.230861634016037 0.05613670125603676 -0.18345427513122559 0.00023383539519272745 0.9925393462181091 -0.12192456424236298
-0.41771548986434937 -0.08031004667282104 -0.3150322139263153 5.238271478447132e-05 -0.17369695007801056 -0.9847991466522217
0.16301709413528442 0.024474982172250748 -0.04600923880934715 -0.00010347649367759004 0.9847350716590881 -0.17405979335308075
0.32522106170654297 -0.11482930183410645 0.055427439510822296 4.8124100430868566e-05 -0.9847598671913147 0.17391930520534515
-0.30625268816947937 -0.11575629562139511 -0.022180575877428055 -0.6633047461509705 -0.7415865063667297 0.10038040578365326
0.16636833548545837 0.47392749786376953 0.17463162541389465 -0.0 -0.0 1.0
0.041213374584913254 -0.01324475184082985 0.17517603933811188 0.0 -0.0 1.0
0.31995758414268494 0.472718209028244 0.174444779753685 0.0 0.0 1.0
-0.1175599992275238 0.18082435429096222 0.015221557579934597 9.190204708353633e-10 0.2344595342874527 -0.9721258878707886
-0.09754056483507156 0.2336011528968811 0.03039737604558468 -3.3421827538404614e-05 0.17360825836658478 -0.9848147630691528
0.059836361557245255 -0.2090855836868286 0.18015024065971375 0.0 0.0 1.0
0.04609491676092148 -0.31444257497787476 -0.11122839152812958 0.14800553023815155 -0.9829647541046143 0.10897058993577957
-0.48658207058906555 -0.00966021791100502 0.12176118046045303 -1.0 -0.0 0.0
0.06785859912633896 -0.2055705487728119 -0.12060676515102386 0.9051995277404785 -0.07379642128944397 -0.4185306131839752
0.26998433470726013 0.5201748013496399 0.08902966231107712 -0.23100125789642334 0.9726106524467468 -0.025823839008808136
-0.23932889103889465 -0.251983642578125 0.09119240194559097 -0.9988046288490295 -0.04885949194431305 0.0014452666509896517
0.043299295008182526 -0.16496622562408447 -0.2299955040216446 -0.0005325623787939548 -0.9848722219467163 0.1732809841632843
0.4322406053543091 -5.883956328034401e-05 0.12550197541713715 1.0 0.0 0.0
-0.08239904046058655 -0.28515225648880005 0.1786234825849533 0.0 0.0 1.0
-0.14552122354507446 0.10525578260421753 0.1726478636264801 0.0 -0.0 1.0
-0.19112350046634674 0.1255367547273636 -0.0011327756801620126 0.026620173826813698 0.5602166652679443 -0.8279182314872742
-0.1367509663105011 0.06202336400747299 -0.15641449391841888 -0.0009579540928825736 0.9936485886573792 -0.1125234067440033
-0.3459705412387848 -0.0849076583981514 -0.028979158028960228 -0.42728257179260254 -0.901760458946228 0.065250925719738
0.4211631119251251 -0.2578248083591461 0.12436002492904663 0.023020334541797638 -0.17358577251434326 -0.9845496416091919
-0.08895686268806458 -0.4327998459339142 -0.04339074715971947 0.0018431537318974733 -0.995959997177124 0.08977941423654556
-0.48397088050842285 0.060616087168455124 -0.18945494294166565 8.448833978036419e-05 0.9922890663146973 -0.12394487857818604
0.10502931475639343 0.1496153175830841 0.013337008655071259 0.6696685552597046 -0.11732368171215057 -0.7333342432975769
-0.10275561362504959 0.19221287965774536 0.02090992033481598 -0.021149665117263794 0.17446403205394745 -0.9844363331794739
0.4169977903366089 0.35083627700805664 0.17433170974254608 0.0 -0.0 1.0
0.16606342792510986 0.1783733367919922 0.182961568236351 -0.0 -0.0 1.0
0.3986731469631195 0.04106387123465538 0.03579278662800789 -0.00024267770641017705 0.9848528504371643 -0.1733919233083725
-0.1023867279291153 0.09841658920049667 0.17406058311462402 0.0 0.0 1.0
0.2040022611618042 0.08815991133451462 0.1739237755537033 0.0 0.0 1.0
0.33102768659591675 -0.10864312201738358 -0.012079834006726742 0.34051188826560974 -0.16366860270500183 -0.9258856177330017
-0.00107143959030509 0.05257424712181091 -0.24738472700119019 0.0007728469208814204 0.9893383383750916 -0.14563359320163727
0.15096044540405273 0.4752311706542969 0.1649884432554245 -0.4237178862094879 0.9057683944702148 -0.0068411147221922874
-0.0810404121875763 -0.302409291267395 -0.2788017690181732 -1.5037745470181108e-05 -0.1736629754304886 -0.9848051071166992
0.17803597450256348 0.2135464996099472 0.1735304445028305 -0.0 0.0 1.0
0.3551948368549347 -0.02531680092215538 -0.016892345622181892 0.24822083115577698 -0.1681281477212906 -0.954001784324646
0.09260746836662292 -0.20594993233680725 -0.07096466422080994 0.8484417200088501 -0.0818198099732399 -0.5229266285896301
0.33924928307533264 0.0988488495349884 0.05357344076037407 0.2525961399078369 -0.1679447442293167 -0.9528849124908447
0.16881251335144043 -0.1502281129360199 0.1716759204864502 0.0 0.0 1.0
0.37542659044265747 0.010969888418912888 0.16998837888240814 -0.0 0.0 1.0
0.29656267166137695 -0.1453610360622406 0.17112204432487488 0.0 0.0 1.0
0.005569483619183302 -0.24097466468811035 0.1736772507429123 -0.0 0.0 1.0
-0.029363330453634262 -0.39745253324508667 0.0598137192428112 0.9156178832054138 -0.32635626196861267 -0.23480930924415588
-0.042452894151210785 0.3331778645515442 0.12188489735126495 -0.7193711996078491 0.6945289969444275 -0.011601665057241917
-0.29529041051864624 0.09417422860860825 -0.03956072777509689 -0.053144704550504684 0.805048406124115 -0.5908237099647522
0.3976202607154846 0.49581918120384216 0.1802237182855606 0.0 0.0 1.0
0.360451877117157 -0.2127799093723297 0.17460955679416656 0.0 -0.0 1.0
-0.04478202387690544 -0.4318956136703491 -0.12161976099014282 0.5527071952819824 -0.8275726437568665 0.0981748104095459
-0.08112098276615143 0.2108241617679596 0.1744478940963745 0.0 0.0 1.0
0.313311368227005 0.31456422805786133 0.09652338176965714 0.2520638704299927 -0.1778242290019989 -0.9512319564819336
-0.08422534912824631 0.1047203317284584 0.17132844030857086 0.0 0.0 1.0
-0.01017944049090147 -0.1499597728252411 -0.301270991563797 -4.459485353436321e-05 -0.17370598018169403 -0.9847975969314575
0.06742643564939499 -0.29540395736694336 0.14663787186145782 0.14021919667720795 -0.9900960326194763 0.006958953104913235
0.22569116950035095 0.22424958646297455 0.1749029904603958 0.0 0.0 1.0
-0.357829213142395 -0.08638794720172882 -0.09465789794921875 -0.33690816164016724 -0.9375962615013123 0.08605913817882538
0.06061533838510513 -0.20639121532440186 0.16809289157390594 0.0 0.0 1.0
0.2307213991880417 -0.051554691046476364 0.17647968232631683 -0.0 0.0 1.0
0.42977601289749146 0.048119086772203445 0.17390254139900208 -0.0 -0.0 1.0
0.22957298159599304 0.03306558355689049 -0.024068936705589294 0.00028247054433450103 0.9848000407218933 -0.17369148135185242
-0.23068192601203918 -0.4117128252983093 -0.15378932654857635 -0.832389771938324 -0.5493127107620239 0.07336754351854324
-0.08366794139146805 -0.4190957844257355 0.127465158700943 0.0 -0.9998289942741394 0.01849246583878994
-0.4870705008506775 0.03651291877031326 -0.05217030271887779 -1.0 0.0 0.0
0.29952573776245117 0.3522409200668335 0.08433236926794052 0.25981032848358154 -0.1668805032968521 -0.9511306285858154
-0.24689429998397827 -0.17073801159858704 0.08158596605062485 -0.9035325050354004 -0.4281989634037018 0.016574110835790634
-0.48950543999671936 -0.08770506083965302 -0.2605760991573334 -1.0 -0.0 0.0
0.20373237133026123 0.31409719586372375 0.047835882753133774 0.47287389636039734 -0.1595238894224167 -0.8665692806243896
0.42889541387557983 0.5339498519897461 0.1628194898366928 1.0 -0.0 -0.0
-0.25817346572875977 0.04746377840638161 -0.2919234335422516 0.0016018487513065338 0.9877129197120667 -0.15627124905586243
0.1343512088060379 0.4675962030887604 0.07199662178754807 -0.43658682703971863 0.899258553981781 -0.02694648876786232
-0.42331814765930176 -0.029362356290221214 -0.3240479528903961 -0.00017874350305646658 -0.1738620102405548 -0.9847699999809265
-0.23202277719974518 -0.3381859064102173 -0.05502491816878319 -1.0 -0.0 -0.0
0.00934816524386406 0.06167769804596901 -0.1338491141796112 0.00025033726706169546 0.9940671324729919 -0.10876798629760742
-0.10834184288978577 -0.448003888130188 -0.16755549609661102 -1.9746517864405178e-05 -0.9901466369628906 0.14003446698188782
-0.23566481471061707 -0.24636833369731903 0.024367190897464752 -0.9988055229187012 -0.04879872500896454 0.0025124007370322943
-0.29491862654685974 0.038216352462768555 -0.3333500027656555 -7.116714995092366e-10 0.9853682518005371 -0.17043936252593994
0.1564585417509079 -0.07683935016393661 -0.15883387625217438 0.8838207125663757 -0.07323915511369705 -0.4620573818683624
0.02796073630452156 -0.17980347573757172 -0.2515523433685303 0.9933398962020874 -0.020019207149744034 -0.11346830427646637
0.33836716413497925 0.3591254949569702 0.1754883974790573 0.0 -0.0 1.0
0.35698196291923523 0.03221915289759636 -0.02585938200354576 0.00013152786414138973 0.98491370677948 -0.17304588854312897
-0.06284193694591522 0.2310962677001953 0.176401749253273 -0.0 -0.0 1.0
0.07738646119832993 -0.007203800603747368 -0.234394371509552 -0.00035486742854118347 0.9846436381340027 -0.17457590997219086
-0.45839202404022217 -0.0669197365641594 0.1377408504486084 0.0004943553358316422 -0.9998894929885864 0.01486154180020094
0.25988951325416565 -0.22188015282154083 0.0836893618106842 0.4249507486820221 -0.1572132706642151 -0.8914599418640137
0.41808411478996277 -0.0032452114392071962 -0.012160087935626507 0.0694686695933342 -0.1728588491678238 -0.9824938178062439
0.37790846824645996 0.505392849445343 0.174134761095047 -0.0 0.0 1.0
-0.07254288345575333 0.3104410469532013 0.0570794977247715 -0.7557299137115479 0.654441773891449 -0.0240487027913332
0.02868104726076126 -0.31683221459388733 -0.21732419729232788 0.986962080001831 -0.02792576514184475 -0.15851154923439026
0.3580591082572937 -0.002930283546447754 -0.021652836352586746 0.25205424427986145 -0.16741135716438293 -0.9531222581863403
-0.19032780826091766 -0.004863698501139879 -0.3328751027584076 3.138537795166485e-05 -0.1737341582775116 -0.9847925901412964
0.052553821355104446 -0.28456857800483704 -0.12987661361694336 0.9239264130592346 -0.06647798418998718 -0.3767501711845398
-0.37159544229507446 -0.07537233829498291 0.03663289174437523 -0.28734615445137024 -0.9574748873710632 -0.02596106380224228
-0.24281299114227295 -0.22840815782546997 -0.15990079939365387 -0.9693718552589417 -0.24337635934352875 0.03295765072107315
0.34412744641304016 -0.17787975072860718 0.1734369546175003 0.0 -0.0 1.0
-0.30402225255966187 0.06915570795536041 -0.11447696387767792 -0.004881451837718487 0.9948939085006714 -0.10080817341804504
-0.48667478561401367 0.0367182195186615 0.08388271927833557 -1.0 0.0 0.0
-0.4839062988758087 0.042931653559207916 -0.12895189225673676 -1.0 0.0 -0.0
-0.3160141706466675 0.074942447245121 -0.05757899209856987 0.01714649610221386 0.9022831916809082 -0.43080276250839233
0.2888335883617401 0.36772122979164124 0.17801186442375183 0.0 0.0 1.0
-0.289216011762619 0.1280575543642044 0.10940594226121902 -0.41573137044906616 0.9089827537536621 -0.03029625117778778
0.22261863946914673 0.46481478214263916 0.06378667056560516 -4.240539055899717e-05 0.17363809049129486 -0.9848095178604126
-0.2029954344034195 -0.452969491481781 -0.22904378175735474 -0.1975628137588501 -0.9657372832298279 0.16828694939613342
0.15976981818675995 0.42851269245147705 0.06735919415950775 4.165338759776205e-05 0.17368626594543457 -0.9848009943962097
-0.1117578074336052 -0.13119566440582275 -0.3073326051235199 -8.858490332386282e-07 -0.17366181313991547 -0.9848053455352783
0.38804706931114197 -0.11299347877502441 0.09888636320829391 0.11533941328525543 -0.1724025160074234 -0.9782505631446838
0.4313642978668213 -0.022584833204746246 0.07208860665559769 1.0 -0.0 0.0
-0.24929344654083252 -0.1903330683708191 -0.016294512897729874 -0.94840407371521 -0.31623825430870056 0.022873852401971817
-0.17636680603027344 -0.05423213914036751 0.17475518584251404 0.0 -0.0 1.0
0.07503689080476761 -0.17021527886390686 -0.2673535645008087 -0.00011710702528944239 -0.9847924113273621 0.17373523116111755
0.21620763838291168 0.06579932570457458 0.17197419703006744 -0.0 0.0 1.0
-0.32005149126052856 -0.10419576615095139 0.05374610051512718 -0.5950161218643188 -0.8029811978340149 0.03430826589465141
-0.4866406321525574 0.0288650281727314 -0.24668371677398682 -1.0 0.0 0.0
0.058749694377183914 0.08357392996549606 -0.03342587873339653 -0.0001394642167724669 0.9849182963371277 -0.17302002012729645
0.030058735981583595 -0.19844362139701843 0.1743219494819641 -0.0 -0.0 1.0
-0.4860413372516632 0.009704262018203735 -0.15210892260074615 -1.0 0.0 0.0
0.07882483303546906 -0.2559911906719208 -0.08452697843313217 0.8621400594711304 -0.0879947692155838 -0.4989703595638275
-0.4912721812725067 -0.0028406870551407337 0.08059878647327423 -1.0 0.0 0.0
-0.317963182926178 -0.12572325766086578 -0.2335217297077179 -0.5957261919975281 -0.7938323020935059 0.12223176658153534
-0.06796173751354218 -0.4416346251964569 -0.1724124401807785 0.19480636715888977 -0.9712251424789429 0.13701224327087402
0.36845090985298157 -0.08902186155319214 -0.002722399076446891 0.20552800595760345 -0.1699170619249344 -0.9637875556945801
0.14943121373653412 0.47516846656799316 0.11661358922719955 -0.4178205728530884 0.9077814817428589 -0.03686115890741348
0.3227681517601013 0.10119985789060593 0.06358514726161957 0.0002511845377739519 0.9848769307136536 -0.17325539886951447
0.18242429196834564 0.4290843605995178 0.06260374933481216 -0.00010495534661458805 0.1736246645450592 -0.9848119616508484
0.30591732263565063 0.10604961961507797 0.08555138111114502 0.0002066497690975666 0.9847815036773682 -0.17379704117774963
0.43311601877212524 -0.07847389578819275 0.07669331133365631 1.0 0.0 -0.0
-0.12477956712245941 0.061354201287031174 -0.1741587519645691 -0.0021305137779563665 0.9921468496322632 -0.12506069242954254
0.03178451210260391 -0.198220357298851 0.1776118129491806 -0.0 -0.0 1.0
0.2424566149711609 -0.11538491398096085 0.05238582193851471 0.00021724755060859025 -0.9847976565361023 0.173705592751503
0.4293319284915924 0.028052624315023422 0.09773392975330353 1.0 0.0 -0.0
-0.31791791319847107 0.111723393201828 0.17053501307964325 -0.34881603717803955 0.9371854066848755 -0.0033013620413839817
0.22013531625270844 -0.27100127935409546 0.17630699276924133 0.0 0.0 1.0
-0.1991996467113495 0.040422651916742325 -0.33738216757774353 0.0 0.9852485656738281 -0.17112934589385986
-0.3837994337081909 -0.07603652775287628 -0.05914435535669327 -0.20572678744792938 -0.974872887134552 0.08543617278337479
-0.21876007318496704 -0.4367905259132385 -0.14994150400161743 -0.5656962394714355 -0.8173698782920837 0.10906057059764862
0.25219160318374634 0.4133343994617462 0.17166443169116974 0.0 0.0 1.0
-0.48373717069625854 0.05003180727362633 0.1758759319782257 0.0 0.0 1.0
0.42991018295288086 0.028777683153748512 0.07512706518173218 1.0 -0.0 0.0
0.3171043395996094 0.17533619701862335 0.12039267271757126 0.24431808292865753 -0.1700722575187683 -0.954664409160614
0.10250293463468552 -0.30093705654144287 -0.04071692004799843 0.13238123059272766 -0.9876737594604492 0.08352094888687134
-0.01385799515992403 -0.33566999435424805 -0.18962997198104858 0.17324259877204895 -0.9753349423408508 0.1367800235748291
-0.48594632744789124 0.014192854054272175 0.01389047596603632 -1.0 -0.0 0.0
0.4221760928630829 0.037098050117492676 -0.004007929004728794 -0.0007126887794584036 0.9848558306694031 -0.1733737587928772
0.41725456714630127 0.2964555621147156 0.11460304260253906 0.034079283475875854 -0.15949687361717224 -0.9866100549697876
-0.46348559856414795 -0.06785905361175537 -0.319401353597641 -0.0 -0.17356207966804504 -0.9848229885101318
-0.3051348328590393 0.0398283377289772 -0.3342653512954712 -6.357137408485869e-06 0.9853697419166565 -0.17043036222457886
-0.2128283828496933 -0.41662612557411194 0.15456648170948029 -0.558017909526825 -0.8297762870788574 0.009344663470983505
0.08444185554981232 0.3413580358028412 0.05228713899850845 1.0033783837570809e-05 0.1735805720090866 -0.9848197102546692
0.32324403524398804 0.2093770056962967 0.17347560822963715 -0.0 0.0 1.0
0.24934816360473633 0.3299502730369568 0.06653600931167603 0.36046284437179565 -0.16634729504585266 -0.9178208112716675
0.24219368398189545 0.23462416231632233 0.1774844527244568 0.0 0.0 1.0
-0.25001800060272217 -0.11103025078773499 0.1788928210735321 -0.0 0.0 1.0
-0.2819426655769348 -0.1597243696451187 -0.2509913742542267 -0.8030830025672913 -0.5872703194618225 0.1008525863289833
0.2723771035671234 0.2360215038061142 0.17928096652030945 -0.0 0.0 1.0
-0.18126915395259857 0.026144307106733322 0.17037756741046906 -0.0 0.0 1.0
-0.46516942977905273 -0.08853243291378021 -0.21059490740299225 0.0007352087995968759 -0.9900155663490295 0.140956312417984
-0.10426997393369675 0.27156302332878113 0.1560264229774475 -0.7628141045570374 0.6465801000595093 -0.006987929809838533
-0.10436039417982101 0.19848303496837616 0.1742410957813263 0.0 0.0 1.0
0.10851900279521942 0.33010372519493103 0.04358254745602608 -4.866428207606077e-05 0.174092635512352 -0.9847292304039001
-0.1621585339307785 0.16994331777095795 0.17942415177822113 0.0 0.0 1.0
0.43376901745796204 -0.2101222276687622 0.15914516150951385 1.0 -0.0 0.0
-5.613465327769518e-05 0.05426377058029175 -0.23231706023216248 0.0025401373859494925 0.9912260174751282 -0.13215316832065582
0.14423023164272308 0.22893933951854706 0.03569431230425835 0.570083737373352 -0.12527193129062653 -0.8119800090789795
0.13227339088916779 -0.0025287121534347534 -0.19695688784122467 -9.296752978116274e-05 0.9848877787590027 -0.17319372296333313
-0.13426142930984497 0.22106590867042542 0.024535847827792168 -5.3191539336694404e-05 0.17358294129371643 -0.984819233417511
-0.37170130014419556 0.08902353048324585 0.12933488190174103 -0.24203026294708252 0.9701622724533081 -0.014365758746862411
-0.11103213578462601 -0.28166335821151733 0.17701514065265656 -0.0 0.0 1.0
-0.49068740010261536 -0.023128926753997803 -0.14510679244995117 -1.0 0.0 -0.0
0.13816037774085999 0.09985395520925522 0.0006192991859279573 -0.00016315131506416947 0.984752357006073 -0.1739620417356491
-0.2224898785352707 -0.42842796444892883 -0.2142687886953354 -0.8312691450119019 -0.5491003394126892 0.08648910373449326
-0.1413019895553589 -0.0050165955908596516 0.1733459085226059 -0.0 0.0 1.0
-0.32753199338912964 -0.11529412120580673 -0.30743423104286194 7.083552918629721e-05 -0.17375360429286957 -0.9847891330718994
-0.3361051678657532 0.0020430078729987144 -0.3332814872264862 1.4784009181312285e-05 -0.17365962266921997 -0.9848057627677917
-0.11648835241794586 -0.29127034544944763 -0.27781426906585693 -2.279646651004441e-06 -0.17370183765888214 -0.98479825258255
-0.11503197997808456 -0.30554378032684326 0.17206569015979767 0.0 0.0 1.0
-0.4386771023273468 0.08383321762084961 0.12668047845363617 -0.11850044876337051 0.9929304122924805 -0.006842746865004301
0.3493316173553467 0.47327837347984314 0.17234043776988983 -0.0 0.0 1.0
-0.1339254379272461 0.15720489621162415 0.17493769526481628 -0.0 -0.0 1.0
-0.013726413249969482 0.016958091408014297 -0.3298615515232086 5.075394074083306e-05 -0.17375268042087555 -0.9847893118858337
0.07584250718355179 -0.2101382166147232 -0.10209383070468903 0.8846494555473328 -0.08096272498369217 -0.45917367935180664
0.14932329952716827 0.3806062638759613 0.17867903411388397 0.0 0.0 1.0
-0.031931810081005096 -0.4089318811893463 0.09804748743772507 0.8023034334182739 -0.5378473401069641 0.2589004337787628
0.053092677146196365 0.23286321759223938 0.17450755834579468 0.0 0.0 1.0
-0.21563874185085297 0.02592860534787178 -0.3386586308479309 2.737524664553348e-05 -0.17372895777225494 -0.984793484210968
0.35528987646102905 -0.2108767032623291 0.11000257730484009 0.206374391913414 -0.16994233429431915 -0.9636022448539734
-0.05726460739970207 0.2744491696357727 0.03375404700636864 -6.123355706222355e-05 0.17367398738861084 -0.9848031997680664
-0.39607301354408264 -0.08002050220966339 -0.31745705008506775 4.155369970249012e-05 -0.17362967133522034 -0.984811007976532
0.012312120757997036 0.3882305920124054 0.10796499252319336 -0.6310313940048218 0.7752975821495056 -0.026703203096985817
0.1716732233762741 0.20356546342372894 0.05144213140010834 0.5354110598564148 -0.16372324526309967 -0.8285709023475647
-0.4230668246746063 0.08388160169124603 0.1596677303314209 -0.17008529603481293 0.9848073720932007 -0.03500726819038391
-0.25881993770599365 -0.07221762835979462 0.1668088287115097 0.0 -0.0 1.0
-0.46479281783103943 0.04609217122197151 -0.3098381459712982 0.0016086830291897058 0.9865441918373108 -0.16348716616630554
0.17942924797534943 0.42992186546325684 0.1767159253358841 -0.0 -0.0 1.0
0.4181327223777771 -0.22461019456386566 0.1741468906402588 -0.0 0.0 1.0
-0.09568087011575699 -0.2748085856437683 0.18013468384742737 0.0 -0.0 1.0
0.2044217437505722 0.12648876011371613 0.1697530895471573 -0.0 0.0 1.0
0.28326326608657837 0.4180053770542145 0.17688925564289093 -0.0 -0.0 1.0
0.004276559688150883 -0.06025582179427147 -0.31984463334083557 -7.289397763088346e-05 -0.17374935746192932 -0.9847898483276367
0.04408693313598633 0.12453173100948334 -0.007825389504432678 0.020414918661117554 0.6357840299606323 -0.7715969681739807
0.2723395526409149 0.39873361587524414 0.062056735157966614 0.32966968417167664 -0.17023682594299316 -0.9286211729049683
0.07747318595647812 -0.21975108981132507 -0.09498697519302368 0.8754810690879822 -0.0760352611541748 -0.4772331714630127
0.3465181589126587 0.249818354845047 0.17934291064739227 0.0 0.0 1.0
0.2669379711151123 0.029526973143219948 -0.021782301366329193 -0.00012994965072721243 0.9846970438957214 -0.17427504062652588
-0.012274513952434063 -0.32569703459739685 -0.14689968526363373 0.16434264183044434 -0.9786158204078674 0.12370339781045914
0.2891990840435028 0.42763552069664 0.17468340694904327 -0.0 0.0 1.0
