-7.978483 -0.322953 4.977393
4.927761 -8.812673 5.182407
-2.696086 8.411505 -4.588665
-2.265005 -14.695235 1.322638
-2.999951 2.294456 -8.797413
-7.873569 -8.486120 0.920517
-5.594676 3.623749 6.719061
4.115709 -12.116751 0.866659
8.531962 9.029598 -1.907407
-1.825386 -10.264064 -5.015048
-13.465450 0.165936 -0.737459
9.302764 8.602848 -1.626151
-9.478392 4.932634 -4.158651
2.365249 -8.525184 -5.211687
-4.110197 -5.011570 7.739909
-13.651769 -3.797031 0.283533
-2.326409 11.844485 -1.554969
-0.920636 -10.888070 -1.585530
15.066298 -1.813992 -0.147396
-14.011864 0.952079 -0.479382
15.979308 -1.295338 0.616531
-3.437280 -9.356112 3.701989
-7.933828 6.256996 4.308748
-5.985708 -4.360028 -7.252953
-0.614352 -11.418803 -1.261252
-2.216419 8.668450 -4.881803
-16.963792 0.407025 0.014920
2.923607 0.523390 -10.387672
9.710934 6.221548 1.179100
-13.595211 -5.403750 -1.359758
8.710311 -9.017925 -0.574990
4.154246 5.373162 -6.737023
-6.198457 12.922686 -1.682429
3.848333 9.183148 -4.376795
-10.047627 -5.785383 -2.486477
-13.915408 -2.091212 -1.159661
4.397687 8.812337 3.965535
5.691357 -13.214823 -1.225669
7.021276 9.868877 0.397555
0.939859 8.023910 6.544673
-6.464725 8.260530 4.073715
2.942507 5.989588 7.353875
5.331103 10.943334 3.172719
3.032247 -13.062656 0.800045
-10.851407 -6.625609 -2.508505
2.044834 -0.057710 10.875233
-5.517081 6.322948 5.146907
0.823129 8.519347 4.028318
-9.478069 -1.624586 -3.056960
-1.731663 13.959364 -1.071898
-6.815832 8.256788 4.081087
-4.617783 -0.809794 8.757102
-3.075095 -15.460134 1.135617
-13.201234 3.968513 0.782718
-3.917737 -0.275555 -9.382988
9.358966 -8.581019 -3.212367
-8.843494 7.340473 3.232272
4.024614 -9.281297 2.430685
-4.812118 6.063678 -5.520331
-0.068217 -9.779791 -5.285387
-12.258114 -2.186808 -1.440869
-6.766901 -2.678743 -6.501526
4.225093 4.013135 7.915027
-3.079574 8.720477 5.687028
9.371836 0.832755 3.265141
2.622591 10.372387 -4.744187
-8.850796 -2.017605 -4.516062
-1.261825 0.864363 11.045276
12.329112 -1.948685 -0.622349
6.185093 5.054692 5.322623
-9.981792 6.443111 -0.850827
-1.157092 -8.441217 4.100527
-1.724499 -4.522029 -8.815901
4.192991 -14.373838 -0.755650
0.026809 15.161126 -0.556534
-6.895008 -9.569564 2.854732
-1.556881 1.590933 -10.400845
-2.534998 -4.549697 7.580375
1.840603 -8.267683 4.462971
-8.245353 -1.214778 4.333087
14.133995 4.584562 -0.942005
-7.300294 -2.233294 6.024594
-4.501540 8.230151 3.844632
-14.016493 -5.294705 -1.808363
-15.113148 -3.102194 -0.503908
1.983829 -9.312252 -3.129124
-11.341093 1.346855 -1.175890
1.899903 6.000032 7.145125
-0.374129 15.478517 -0.619209
0.043371 7.870198 5.129306
-12.010414 1.711579 -0.787461
-0.877720 14.414709 0.798331
9.454197 -7.640432 -0.750968
-7.414498 2.290506 4.753593
5.172100 12.476911 2.572723
-3.485629 14.473693 0.024664
-6.203357 -10.500147 -0.299414
-3.515244 -14.442763 0.836947
7.446813 -2.515793 -4.880536
-13.456445 -4.313623 -1.696431
3.255075 -1.632703 -9.064784
5.380132 -9.085299 1.977452
-1.248193 -4.291773 -9.067081
2.024351 11.809574 2.501304
-8.604560 9.170008 -0.797002
4.739833 9.887118 3.549684
-4.712853 9.061125 2.303226
-7.087622 -1.140361 -5.987736
6.279279 9.710938 1.480569
-7.309591 1.940165 6.610172
9.351714 -7.627086 3.562570
-8.692858 7.483838 4.046693
4.148415 -8.384663 4.314190
-1.671504 -7.172361 -5.258365
7.068058 8.276044 2.098027
-1.575850 5.970288 -6.532815
-10.011701 6.321342 2.236189
9.948997 -6.641267 -3.336876
-0.239360 3.953023 -9.364859
-6.898040 2.488063 5.167734
-10.533142 1.587163 -1.932474
-4.044755 -14.823937 1.532452
-9.447504 -0.724698 -5.417133
5.741294 6.297375 4.918479
2.158934 4.990295 -8.609481
-0.074559 16.027635 -0.501558
9.611892 8.326088 -0.806754
-3.107551 -5.306932 7.482277
-0.405403 16.620100 -0.114009
3.067552 -12.894521 0.866878
1.000112 7.129680 -5.466788
-5.104928 13.891119 -1.341561
-6.456196 -5.828779 -3.824253
2.497394 -11.415007 -1.696377
-12.508585 1.184981 -0.742683
9.498463 -7.028766 2.995507
-4.913680 1.648799 -8.696351
-8.968192 8.770536 -2.081455
-5.808775 9.539490 -2.605809
11.772246 -1.766716 2.484546
-1.070295 1.951800 10.547378
-16.022213 -0.798113 -0.671447
8.037829 -10.520569 -2.873756
1.134197 7.452414 5.628494
-12.389843 -5.221966 0.323021
-3.666098 12.506391 -1.677515
0.925277 -6.987508 -5.959066
-4.692410 11.495018 0.945704
-9.022006 -3.060915 5.506060
-8.780271 5.266679 -3.968783
2.721369 -9.302284 -2.814574
7.848294 -7.310463 2.117075
-0.278280 1.846495 -10.879938
-7.588203 0.842279 5.547221
-14.821192 -2.735884 -1.210465
-7.080870 -8.886412 1.246973
5.312734 11.217801 1.319434
-7.407884 -3.527953 -6.043267
1.729868 -1.045237 10.488249
-5.828778 0.657935 -6.755107
-0.257622 16.982290 -0.471543
4.194532 -4.720061 7.891562
-12.537944 2.723210 2.319923
-2.665687 9.962736 -2.307124
-9.214933 -5.671177 -2.677986
13.421791 -3.634534 0.476373
-2.638796 -0.162680 10.020546
6.780003 -2.998696 5.087037
-1.710341 4.764084 -7.440015
-2.865138 11.692886 1.488246
8.261210 -7.461547 -3.405271
9.019344 2.881231 5.721831
12.384961 0.968063 -1.187327
3.828802 5.824879 5.527362
-2.245409 -10.322893 -4.745276
-2.284355 -9.748761 -4.884840
-3.667463 -12.229267 -0.239906
8.555552 7.271354 4.389078
6.885515 9.836729 -0.723405
-4.437318 -5.702988 -5.681025
-2.602439 -5.705040 7.317890
-12.488418 -4.471040 -1.840759
1.447476 -0.455001 11.275095
-0.098568 7.969885 5.407177
-10.763065 -8.121967 -2.563141
0.410425 5.874178 -6.676648
14.025141 3.959200 0.060363
-6.951146 11.473268 -0.597165
-9.170141 8.240326 -0.624691
12.385117 2.258478 -1.427243
2.878579 -11.654229 -1.688688
9.560858 -7.164228 -1.483754
4.810220 -10.523114 -2.245702
1.109067 1.988636 -10.226029
8.326971 -9.719764 -1.352019
-0.919493 -7.597161 5.759380
7.924192 8.584018 0.814211
-1.344947 -13.883083 1.505818
-1.036169 9.138999 -5.875150
-9.949854 1.474337 -5.154893
-6.367463 2.784154 5.871249
-1.705417 15.570456 0.085520
10.447766 -2.321824 -2.087256
4.487023 4.301055 -7.564451
-0.356322 -7.922991 4.627275
11.807876 5.416029 0.506282
2.904514 1.802348 9.312055
4.459469 10.541126 -1.165037
-2.253387 7.132564 6.038718
-5.357795 -5.642960 -4.861746
-2.976639 -6.308384 6.564390
-9.581563 -5.486445 1.603449
-7.511714 -7.508000 3.119578
4.896728 -7.851264 5.235783
8.125125 -2.227155 4.287228
4.989114 -5.596084 -5.882923
2.666924 12.026821 2.497578
0.424539 7.491659 -5.471252
1.006030 11.947623 2.286750
-2.933329 -4.019289 -8.176122
3.293491 3.810355 -8.001390
-11.357909 -3.922835 1.294951
9.303560 -6.711394 2.488770
11.526369 0.180689 -1.334913
6.464889 4.336105 -6.073519
6.845264 5.227826 5.204006
2.310158 10.246885 -3.277972
0.007694 -9.946557 3.076661
-8.167806 -6.622030 3.966046
-5.437461 -1.525574 6.851105
9.097562 7.041904 1.083740
-6.692002 -5.830702 -3.677887
14.319752 -3.069852 1.603499
12.346527 -0.801208 -0.863324
3.306024 11.164585 2.934137
10.041660 -5.545822 -2.517579
-12.135303 -5.256386 0.424525
-4.750133 4.852432 -7.622040
8.607262 2.873203 -3.713024
8.853612 -4.011892 -4.296328
12.848897 -1.857057 2.036307
12.459235 6.473085 -1.485331
11.823692 6.620456 -0.495615
-4.279332 0.167270 -9.170805
-1.406772 -5.707437 -6.996887
1.719943 2.188303 9.976897
0.365545 -4.604349 8.889098
2.212360 -11.690040 -1.575619
-1.235936 9.951546 -2.481877
4.692119 -11.650449 -2.009862
0.964065 7.725969 6.113055
-8.451263 3.662770 4.108207
-2.806667 5.031418 7.024012
0.765739 4.704052 7.871394
-1.987851 8.325992 -6.169319
7.989707 0.216796 -5.560616
0.008885 -5.422794 7.088645
-9.836649 7.017725 -0.596497
-3.038267 -0.994284 9.395480
-6.876129 3.892689 -4.645427
-9.990158 6.890738 -0.456952
-5.983505 -10.166665 1.338657
-3.331093 -4.330376 -8.012312
9.317429 -7.881345 -0.799068
0.906530 7.427371 6.754054
1.588981 10.669992 -1.752172
-5.882308 5.772973 5.066563
10.966976 -5.545226 0.602848
0.271850 -5.678227 -6.838500
-12.851613 2.689571 2.181895
12.160548 0.498190 1.895182
2.089910 0.000206 -10.593653
-5.536618 0.233503 -7.131729
-13.189371 -5.846794 -2.071725
2.033259 14.889272 -0.114141
-6.173776 6.027187 -3.914809
-16.675685 1.148574 0.301868
-5.508403 -10.935323 3.181976
2.020950 -10.616321 2.272771
3.430712 -8.896464 2.966406
6.157759 9.890629 1.461037
-14.633305 1.948413 1.315683
3.574917 10.860208 -1.074021
7.891140 7.864584 -3.251548
-0.541623 -14.324589 1.159587
1.146982 -14.846920 0.542190
2.915151 14.983961 0.459658
8.150878 0.992912 4.947449
5.849692 -6.814043 5.000950
-6.211113 8.489436 4.823128
6.129176 -9.701951 1.226002
5.313408 -4.337009 -6.729670
-2.830499 1.944094 9.811032
6.034932 10.278921 1.911392
-9.014102 -4.899655 2.255557
2.061829 -0.648474 10.416096
2.338268 -4.840390 -7.219944
-6.315149 -4.647187 -5.475198
9.101920 1.457553 -4.903410
-5.585910 1.296259 7.128322
-7.302482 -7.720920 -3.355711
1.257137 -5.175920 7.450167
-0.064808 9.020706 -5.522368
1.830689 -5.144577 7.908721
2.955347 10.468039 -1.907152
5.591164 10.892556 0.643299
-3.721905 3.387639 -7.960383
-2.267096 -2.676506 -9.003384
-11.252262 5.221726 0.801997
-9.388494 -3.193650 -2.614944
-8.652446 6.985279 1.647119
1.269480 -11.411617 2.069999
-10.394741 0.508450 2.935161
-6.134519 10.706072 0.708359
-2.633501 1.667089 -9.400293
-1.832553 -3.625912 9.315649
7.799403 -3.688774 -4.404798
8.782539 4.751996 -2.793805
-7.427631 -6.084162 4.891107
-10.549144 -5.378478 -2.327057
3.974172 -1.354536 9.470346
6.831464 10.098086 2.906351
-7.139468 -3.131763 5.801505
2.051188 -8.514719 5.961345
-3.906305 1.558729 9.264204
5.386554 -11.825693 -2.123228
-1.846710 -3.879950 8.428472
-11.951655 4.670356 0.715675
-6.671727 3.169681 -5.107518
-3.696108 7.185769 5.632407
2.153792 -8.302932 4.529107
7.369991 -4.007214 -4.390876
-1.020288 6.112846 -6.397163
-13.477456 4.737324 2.152217
6.318835 10.084200 -3.636723
-1.077478 -7.132611 6.821782
-3.494148 -3.616062 -7.905108
-6.527227 -5.605576 5.099141
-6.398760 8.105642 2.236218
-5.012704 -9.428658 3.742291
-8.833823 0.999055 -5.160510
2.081521 10.477222 -2.025622
1.489995 -4.262324 -8.036566
9.410490 8.890926 -2.787156
0.722014 13.359729 -0.636784
-7.873835 8.812790 -3.079158
9.562950 3.396933 2.473491
0.033911 -5.374849 -7.290897
4.963556 -3.683572 -8.047822
-14.370679 1.508245 1.351227
-2.437030 -15.402068 0.165510
-4.189757 0.833289 9.274382
-3.580551 7.614788 -5.032447
1.641922 -9.104028 -4.159751
-2.408068 8.018140 5.907670
7.853258 -5.597128 -3.809562
-5.147768 -2.539089 -7.025549
8.132313 -4.152809 -4.228083
6.452247 -2.954068 6.816123
-1.259187 3.210488 9.062879
13.684030 1.851894 0.869909
-1.783358 6.475049 6.281834
-5.236701 -11.793717 1.634870
6.009111 0.503929 -6.477849
2.475507 2.486813 9.801865
-9.466903 -1.535898 -3.148571
3.820447 14.592968 1.596098
-7.863760 -1.947133 6.037083
9.808302 -2.336440 -4.879518
7.009382 -1.568218 -5.385968
-4.034059 4.628569 7.323334
-11.038557 5.172220 3.140772
10.359431 -3.741291 -4.041084
9.450011 -8.455916 -3.383540
1.422280 -9.257777 -3.939169
-1.975613 9.563789 -2.766817
4.230217 3.352126 8.046760
5.647826 -5.480854 -4.730328
-8.428209 -6.432678 -2.950045
8.110739 2.163333 5.961287
1.669043 1.399583 10.417240
-8.310453 -2.551818 -5.842339
-5.203023 5.912002 -4.922897
-10.857960 -0.759264 2.462130
6.329864 11.925643 2.711017
-6.785140 -5.971204 -3.579111
-7.275356 -7.924847 4.302024
1.056609 -4.912907 -7.529931
8.401236 1.043137 4.070500
8.903489 2.192722 -3.887213
8.145212 -4.413764 -4.150560
-0.574978 -5.448648 -7.342788
0.178222 -15.614545 0.453453
-0.990399 -4.707313 7.723576
5.044123 10.297480 -3.856391
-9.190277 -8.650520 -1.536737
-5.196036 5.989967 -4.820484
-2.109825 8.229700 5.965383
7.013770 9.737951 -0.832327
-10.292326 2.596950 3.245006
0.519402 -12.464346 -1.089851
-0.454848 5.024997 7.946096
-10.019891 5.877178 -4.075982
-4.841314 -9.008839 -4.102915
10.925455 -5.516379 1.405377
-2.608704 6.587535 6.032270
4.811254 -13.772512 -0.681734
-7.131269 5.467457 -3.895863
0.830675 3.352446 -9.470924
3.102593 14.636972 1.479440
8.274862 -4.661614 -4.080075
1.578835 -12.849526 1.318810
6.981585 3.277855 5.777942
0.513794 7.486670 6.656374
5.688590 11.088454 0.217404
2.392202 -13.830490 0.649563
9.278294 3.050039 -2.745786
4.462210 -6.295739 -6.077140
-5.918346 0.562887 6.929677
6.841779 -4.933276 4.766992
3.551192 -1.497570 9.542676
-0.534802 -2.827422 9.626459
7.544912 4.874711 -3.505290
-3.439247 2.748018 8.103434
-0.633613 -13.657977 -0.607783
-2.254498 14.455366 0.414017
8.507745 2.695276 3.646571
-3.030612 -7.816065 4.428766
-1.679744 -14.509821 -0.246863
3.431836 5.976832 -5.886178
-8.965706 0.019423 3.657557
-0.211530 9.577724 3.249096
-4.389344 -11.046438 3.065062
2.641994 -8.660527 -3.886417
9.009093 1.523777 -5.778558
-7.522024 5.083204 4.485191
8.210945 -4.845762 -4.025759
4.877325 3.373744 7.464420
-0.639725 3.785051 8.850619
-1.533691 -6.492989 -5.830023
1.428184 10.137007 -3.999584
17.013459 -1.350829 0.190222
-6.857631 -5.397191 5.147102
-11.923405 -6.620934 -2.381079
-1.521492 12.501159 1.493523
0.270617 -6.086974 -6.405782
-3.662787 -3.074484 8.074522
5.856408 -0.615598 -6.715946
10.476866 -6.166068 0.479124
-7.169865 -9.868079 -3.506161
1.991919 -14.644936 0.405605
-1.877471 -12.236999 2.294480
9.800587 -0.929812 -5.294986
-12.842607 2.094625 -0.451763
-8.843741 8.744962 -1.117422
15.976777 -2.989547 0.743946
-13.507681 -2.501590 0.761145
1.742346 2.137987 -9.751614
10.327747 4.958546 1.423773
0.698544 -10.335923 2.736465
0.218359 5.541531 -7.117398
-5.997762 4.446258 -5.157788
-2.460527 8.892622 5.559332
-8.220998 -1.070390 5.129387
1.247244 16.156859 0.530216
-11.859646 5.635850 2.093528
-9.334512 3.441186 3.716072
-3.602802 2.770783 7.982391
-9.037884 7.076574 1.106013
3.119337 8.415371 4.126626
2.622607 -9.722520 2.617471
9.644024 6.295036 1.177808
-7.006229 10.469135 -2.647320
-2.761920 8.987224 5.560477
6.641298 4.070643 5.583626
6.091706 -6.150254 -3.877915
12.001915 -6.401279 2.778760
-1.276671 -6.427719 6.943627
-8.549672 -7.548007 1.117993
-4.621796 6.931784 -4.411737
-5.338514 9.491748 1.725889
-1.193697 -5.005927 -8.359244
-3.329371 15.456222 -1.288389
-3.849103 8.431993 3.360641
5.310092 9.743289 3.630627
2.058493 -14.868781 -1.057344
-4.858881 -11.347781 -0.259911
-4.066106 9.039938 5.260956
-10.737142 -7.392481 0.076384
0.136298 -9.697668 -5.314778
-7.812237 -9.496589 -3.603554
-2.019555 2.857771 9.232994
8.947459 3.693264 5.513167
7.803307 9.309692 -1.603721
5.913659 -7.963267 2.906785
0.633193 16.540692 -0.296326
-12.108896 -0.036348 -1.098735
4.191894 1.746363 -7.976145
5.938488 -3.274590 -6.050511
7.990090 -7.917102 1.252025
-6.240653 -2.210123 -6.502447
3.162628 6.414485 5.342787
-3.173009 6.099362 5.976043
10.633261 -4.928956 -0.805673
8.401498 4.497573 3.085425
10.879234 -3.733940 3.089724
2.591306 1.878061 10.101014
6.322572 4.486910 -5.923254
-9.645542 -0.278773 -5.282685
-5.552061 1.622487 -7.291838
-5.812523 4.466341 5.295151
2.758113 -5.842396 6.187150
5.335087 -3.966591 -7.017846
11.338846 7.407076 -1.696775
-3.173151 15.184286 -1.283310
12.853688 1.725640 1.281140
-8.427049 -7.698376 -3.119517
-1.111228 16.314462 -0.259797
3.601726 -8.317007 3.843719
4.643651 -5.225766 -7.497900
4.319780 7.026772 -4.388986
-7.107072 1.583681 -5.330772
5.009720 3.026884 7.775986
11.550980 4.879684 0.847983
7.691426 2.156651 -6.222557
-1.858598 8.515979 5.268493
-0.757325 16.185034 0.068238
0.671295 0.360561 -11.887740
5.892513 -4.448346 5.266520
-1.609460 -11.390976 -1.112336
4.526581 -12.990449 -1.792896
7.110538 -12.048451 -2.135301
3.458997 -7.772201 5.649593
1.404363 4.110627 8.850729
13.769555 -3.951999 1.942030
2.846692 -12.532506 -1.506428
1.477902 -6.887786 -6.123854
-9.778776 -3.530674 2.288841
15.453928 0.130212 -0.563016
9.010038 2.420932 -3.364497
3.160004 10.294632 -3.415951
-8.024110 -8.512462 0.802296
3.157035 5.968324 -6.055317
-5.794048 7.958099 3.219483
8.378393 2.661430 -4.846937
6.594097 -8.107758 3.888017
6.965007 -10.197380 0.545011
-5.889244 -8.936718 -3.848982
5.219743 11.478098 -0.069773
-1.176981 8.577592 -5.873966
4.097968 12.567957 2.438202
4.013199 9.016849 -4.315067
-5.038076 -2.937669 8.290089
-1.752667 1.556353 10.235700
1.767988 -0.671019 10.731448
-5.508325 -5.130499 -5.667518
-2.890155 4.784050 8.249760
-5.754676 -10.111003 -3.278572
1.697291 -1.597605 -10.250741
-10.151144 6.395324 -4.003745
-3.535570 -10.120166 -4.623080
2.274584 11.117383 -1.175921
-2.853093 -1.146870 -9.865716
2.465648 7.134840 -5.042268
10.706369 -5.834297 0.571728
-4.489487 4.386637 7.092597
-2.362451 -3.004528 9.191878
-4.226573 -5.085251 -7.526740
-6.913548 5.082098 4.727261
-10.118811 -2.993084 2.266566
11.919089 2.897981 1.373216
-2.672038 -15.777136 0.463832
13.898183 -5.062409 1.982290
-13.119951 5.380250 2.102937
-4.679403 8.029514 -3.236898
8.353200 0.404055 4.145306
2.696914 -8.298379 -5.144617
-3.245631 7.470939 -6.664733
-8.642981 -9.169409 -2.646141
7.626459 0.434379 -5.678496
3.628949 -13.542915 -1.531823
-0.222842 -4.852870 8.003590
-16.883945 2.111033 0.243991
15.392771 1.510278 0.216703
11.833811 1.550201 -1.430276
10.302316 -2.208344 -4.652546
16.193985 -2.756206 0.786886
12.611455 -1.959210 2.149037
7.790836 -4.638507 4.388896
8.145562 6.735639 3.937945
3.125231 8.893234 -4.543839
3.037242 -2.322845 9.224374
-6.924038 -9.647429 -1.456364
6.579241 4.395189 -5.607550
5.318648 4.544401 5.686301
5.774829 -7.355518 -3.343199
6.575699 -11.728840 0.027347
-4.480060 -9.509521 3.689296
2.093442 -15.276559 -1.029897
-1.754354 2.278698 -9.756443
-7.952105 -4.220706 5.423617
-10.554439 2.565696 3.134776
1.359285 -8.726713 -5.951121
-13.957000 1.557453 -0.351524
16.260349 -1.923186 0.616212
-1.718257 13.344287 1.054785
6.396576 -0.357587 -6.097313
1.559929 -7.891181 6.130136
-10.190855 -5.604422 -2.430051
-5.053711 2.457396 -8.444846
8.803968 4.021094 2.817814
13.003186 5.425847 -0.254792
-0.623679 -3.658095 -9.494587
-0.091643 7.992732 -5.515839
7.592057 8.190765 3.413251
0.390894 -15.541194 0.434773
7.726316 -2.728262 -4.724579
7.759378 4.918499 5.233004
2.957434 -7.526235 -6.546644
2.498352 -13.710741 -1.276621
-7.962961 -4.848629 5.241780
8.810151 7.529940 -3.014936
-14.612447 -2.933261 -1.273728
12.192706 6.815712 -1.762341
-4.427962 -12.224271 2.607964
8.245737 -2.301609 4.218102
5.576841 9.924152 3.568009
5.352736 -3.929232 5.923514
12.003319 7.011125 -2.463776
2.958175 5.556913 -7.051031
6.028913 -3.291932 6.754502
8.670525 -9.236169 -1.778737
10.585457 -6.475380 0.120240
-7.391068 5.809579 -3.746550
-2.842769 10.271735 2.225931
5.522943 -3.907451 7.363963
9.210208 -7.151667 3.866755
-7.279903 4.159692 -4.354866
-3.230348 -1.689626 8.862071
-9.216557 5.397922 -4.007241
-3.472730 -9.640935 -4.541328
2.075068 6.948105 6.078766
-4.092634 -12.191882 -0.136192
-7.725492 2.592784 -4.767896
-3.382520 -7.634793 4.512357
-3.573106 5.024337 6.340367
-8.528460 -2.918973 -3.839526
9.937680 3.214013 -2.296434
-2.045172 -3.232304 9.776850
-4.769633 0.507331 7.943771
8.925051 8.903161 -0.172016
6.101613 -3.374846 7.072091
-4.056472 -0.604401 -8.932158
-9.059057 3.985460 3.855968
-3.324541 8.834185 5.617608
4.270316 -9.042126 -2.707920
-13.436759 -0.047665 -0.789846
10.660829 7.573301 -0.453463
-12.253089 2.671267 -0.485406
1.606231 -1.258215 -10.521009
10.294802 -3.513717 -2.679194
1.124946 -8.182874 4.919066
5.789829 -12.411357 -2.139380
8.225293 8.590649 0.623376
8.352551 4.320432 4.226918
12.967620 -1.818180 -0.484189
-7.718879 8.365743 4.201978
-6.535376 -3.447072 5.787101
3.604765 0.296940 9.013324
1.512740 -7.419268 6.190397
-8.889889 -3.474751 2.956203
-12.429939 4.272886 0.477719
-5.375519 -12.118490 1.902498
-2.142860 -8.256779 4.210412
8.289981 7.614225 4.120472
-2.149885 10.716996 -1.896065
-6.489911 8.864756 1.537555
9.595295 -1.536049 -5.076839
8.558806 -9.446665 -0.083427
-1.760179 2.277990 10.240251
-0.383800 -4.396523 -9.110831
5.576970 -13.571496 -1.617314
12.374842 -3.129696 -0.332437
-7.830196 2.820936 4.437947
9.537492 -7.361169 3.335064
5.635586 -4.192274 -6.043174
-5.874855 -11.444234 3.013828
8.153575 6.983549 3.966921
7.949556 6.048041 -3.071722
-2.022435 -0.707407 10.739545
0.709417 -9.172771 -5.759301
-2.014538 -6.346642 -5.884409
2.210953 15.190303 1.111949
-11.093767 -6.566951 -2.466496
3.290186 11.952891 -0.440916
10.763354 2.104364 -1.873778
-7.251773 7.618611 2.190496
3.447910 13.460578 0.218172
6.601256 1.068605 -6.148902
-5.105490 -2.760934 8.086650
10.329065 -2.909710 -4.064820
-11.071985 -6.314116 0.452925
-13.355549 -6.034716 -2.068471
-9.814510 0.158417 3.177185
-9.667323 -8.103999 -2.999819
-1.020675 8.607050 3.828630
-9.280892 -9.086558 -3.211561
-2.479097 -14.499887 -0.056801
16.254912 -1.507564 0.540417
7.068156 -6.380188 -3.589807
-11.827123 -5.593281 0.421190
-1.091101 3.234266 -9.521419
3.715265 -9.869369 2.169919
-3.953556 14.022968 -1.562186
4.148469 -12.479616 0.690600
-1.900291 13.477889 -1.173463
12.483292 -2.885053 2.336534
0.518115 10.750040 -1.729942
-12.900999 -0.182339 1.636875
-2.317273 1.275734 9.910150
3.186696 -8.622843 3.333543
3.981656 2.958134 8.113177
3.731202 1.763736 -8.446224
-2.084922 -3.522053 8.790919
10.956981 7.831259 -2.140624
5.039655 3.275625 8.144615
-8.302513 -2.720157 -5.054365
-9.426539 -3.866945 2.389818
-10.470276 3.421203 -1.735076
5.440194 -9.264553 1.827376
0.763483 -2.402970 10.678656
0.431206 2.388469 10.134827
0.013702 7.823224 -5.511119
-15.078207 3.063030 1.309359
7.490754 -7.865297 -3.203598
5.707830 -12.717924 -0.214495
5.435859 10.213884 -3.632476
5.097406 0.863808 7.880951
-14.586829 -4.194069 -1.567019
-6.649657 8.150682 -3.036057
-8.327363 3.937762 4.168013
0.781441 10.059926 3.135817
-10.529098 -0.465314 -1.966071
-4.624187 -10.519780 -1.111742
-13.055734 -6.342292 -2.142038
10.446671 4.078976 -2.166566
-8.764986 6.803771 4.016736
-4.288752 -5.068267 -7.523578
1.734887 -13.377627 -1.153167
1.177213 -9.812126 -2.703698
2.675518 10.497961 3.155153
2.485617 0.086877 -10.375130
-6.789594 4.482551 -4.418540
-5.012867 7.719960 -3.333204
8.613872 -2.747225 4.022283
-16.715457 -0.194704 -0.068344
5.420824 -8.188277 3.909232
8.210187 -0.347834 6.271372
-2.588259 -1.794366 -9.469685
1.182099 -9.246020 -4.876596
11.551723 0.125425 -1.314835
6.958863 -7.599886 2.858913
5.439669 -13.109397 -0.591251
3.529268 -4.530667 -7.382643
5.787964 -4.754561 -5.222365
8.939212 5.038832 2.247067
9.069894 1.560758 -4.667885
9.490441 -2.225812 -4.860000
-3.542658 10.221975 -2.188337
-3.850698 10.102893 1.979493
-14.147279 -2.334518 -1.189630
-12.830217 5.082666 1.811510
-0.748324 -8.464476 4.065739
-4.900443 -11.879588 1.200824
-5.161070 -2.426075 6.928355
-8.704421 0.926426 3.913031
7.763993 -0.648911 6.662561
-8.216015 -0.192758 4.306449
7.828096 -2.886752 4.430103
0.774640 12.181715 -0.912960
-8.724221 -2.244460 5.410456
0.336233 -1.175905 11.302488
-1.620004 -1.808424 -10.135391
-7.177305 9.993802 0.537108
-5.364444 10.477711 1.167178
4.909445 7.236301 4.604272
11.974471 -4.506256 2.715135
9.442013 -1.746088 -4.991783
7.468789 -5.269854 -3.914837
-4.895303 -0.128362 8.999462
3.963843 -0.068142 9.021469
9.849815 7.334995 0.522872
8.562707 -8.317730 -3.308203
1.691102 1.227323 -10.692624
3.131300 6.455225 7.136735
12.770800 -5.288884 1.968472
-2.027044 5.187937 8.271745
-3.228447 -5.456582 -7.179122
4.203175 1.799833 -7.933584
-10.539561 5.270738 -0.745019
-0.531263 -12.002855 -1.022771
-16.028328 -0.821045 0.121487
-2.736837 8.824280 5.770112
-4.050484 -11.808048 2.740308
-6.147227 3.433010 5.455334
1.624741 12.086701 -0.776616
5.659216 4.621855 -7.003594
-2.365353 -1.343244 10.434793
1.613052 -1.465638 -10.411602
-3.295918 7.848218 -5.062598
-4.222305 -1.650213 8.487462
-5.080226 -5.923342 5.138860
-7.565772 7.998355 -3.185385
-5.783136 2.245410 -6.772197
-11.515112 4.599276 2.924729
-4.766210 -4.596480 5.881225
-10.527635 1.455683 -1.946808
-13.325972 -2.752567 0.768346
10.114873 -1.334982 -4.327930
-7.219787 -3.579191 5.670279
-2.053249 9.353736 -3.020198
2.358535 -13.806828 0.669983
-10.126584 5.719811 -3.378527
10.674546 4.877299 1.278113
-2.117747 7.925420 -6.209520
-5.261726 -11.017259 -0.317332
12.674311 6.374287 -1.631336
-12.939062 -4.196874 -1.734053
-12.517981 0.345996 -0.902719
7.823683 5.599135 -3.153166
-7.775841 11.138884 -2.276551
2.723231 -11.646507 1.552551
0.150464 -9.805857 3.129539
12.970655 1.860676 -1.244549
-2.968428 3.288702 8.158441
-1.524368 9.000106 -5.953369
0.427063 -2.225390 -10.688090
-12.866929 5.730419 2.352102
2.392808 -8.510251 5.017574
-4.016514 8.919246 5.123848
9.870684 3.296047 -2.329785
7.453915 -1.803706 6.664440
-0.510668 6.700053 -5.997361
-16.482305 1.428153 0.443387
-1.458021 3.013259 -9.405987
5.175504 8.684713 4.033695
8.297136 2.565536 -5.905092
3.755723 -10.623698 -2.080368
-16.001960 -1.391567 -0.811304
8.494267 4.788883 -2.930972
0.604208 -5.109998 -7.464093
10.755395 2.197386 -1.885195
15.621456 1.968925 -0.051363
-8.354397 -3.807842 3.541471
5.543676 -9.439887 -2.599962
6.456438 -1.053906 -5.952311
7.184697 -6.321623 4.574146
8.578516 3.858042 3.134459
-9.252420 0.485687 -5.358704
-4.464758 14.496673 -1.637743
16.529798 -2.499175 0.607432
4.661922 14.319336 1.740660
2.193549 -0.005865 10.676267
-2.659660 -16.354218 0.568506
-6.882477 -4.769338 -4.291429
-2.968186 -6.627829 7.111454
7.169682 9.800985 -0.518797
-3.177775 -6.078259 6.537096
-2.872082 3.015454 8.335635
-5.934651 -10.248153 1.273582
0.769723 -8.201374 5.342725
-10.509617 0.226712 2.832322
9.048802 1.487876 -5.434165
-3.908641 12.208378 0.897534
12.672429 -4.333709 2.423507
-9.038704 -0.360759 3.564819
4.460060 -12.967968 0.352480
-3.689303 12.893771 0.660495
3.602999 -14.534573 -1.437668
4.474829 -14.068041 -0.649515
4.034479 10.612319 -1.244675
0.145012 -10.372677 -2.133920
-2.784629 -13.899987 -0.069062
-0.829337 8.107231 4.866914
-2.948563 -14.119077 0.067559
6.785666 3.722526 -6.896322
0.640770 -16.796602 -0.526484
4.497380 7.358317 -4.207468
-5.797592 -4.638453 -6.623927
-2.139244 15.607200 -1.012838
2.030420 -0.358871 -10.504374
-0.983700 -7.541027 5.716637
5.883482 -3.139043 7.413746
4.985591 8.232348 4.204121
-0.783227 15.812970 0.219910
-5.525708 8.286219 2.606513
-0.851596 -1.409749 -10.892545
4.969860 -5.650347 -5.842929
10.316054 -2.913182 -3.927369
-1.432499 9.134147 -4.730409
16.677893 -2.368197 0.411282
-6.599516 2.509446 -5.448003
9.351032 -6.763582 1.111979
-7.328077 10.057383 0.427176
3.666265 -8.303104 3.942896
17.024573 -0.045763 -0.402572
5.621166 -10.442652 -2.384132
8.893481 2.313980 3.315786
3.522876 6.150285 -5.568617
-7.324603 7.467034 2.537697
-5.285881 11.806583 -2.106577
7.540643 -0.917259 -5.324424
-2.453506 8.390224 -5.795211
-3.118803 -1.409768 -9.348630
-2.512761 -3.203412 8.538420
9.369812 -7.488810 3.436023
-1.360560 5.147024 7.577064
-1.386027 -8.347327 -5.039986
12.104794 -2.372632 2.422950
-4.917131 1.544828 -8.662344
-5.235441 -7.504892 -3.925430
4.327924 -2.899805 7.669533
-3.461917 5.401935 6.115989
10.596822 -5.243761 -0.686831
8.074275 -7.501767 1.560141
-0.135108 -12.585803 1.836679
-0.055389 16.448003 -0.467474
8.385475 5.370271 2.580823
2.626830 -13.499188 0.725824
-6.496310 3.015317 7.315105
15.717114 -3.002354 1.020935
-12.148158 5.645980 2.162938
10.287636 -4.449108 -1.831412
-2.639537 -12.304828 2.377557
1.007972 -9.298503 -5.754640
-0.487821 2.577758 10.239324
-6.829571 -9.778293 -2.679443
1.812885 -5.159257 8.034085
-3.686180 8.306618 4.039499
10.898855 -5.998634 2.193640
12.731359 2.536754 -1.419071
0.497439 -0.631040 -11.912851
7.346030 9.518810 0.469408
7.035337 0.986542 6.365772
-1.704898 7.377753 -6.094260
8.821404 1.048716 6.186504
-2.638672 3.106095 8.420551
15.214095 3.040867 -0.590025
2.505222 -0.556366 -10.064962
-4.928565 -9.886145 -4.243217
8.631519 8.704957 -3.290185
7.810818 9.363849 -2.130071
-10.286348 3.819553 -3.310626
1.927035 7.465085 6.833294
6.156172 -5.035153 5.043783
-5.228038 13.240819 -0.384577
7.420785 9.307047 -3.624705
12.203589 2.643126 -1.532835
-0.808169 0.793085 11.421794
-11.561479 0.710477 2.421806
-13.323947 -4.037164 -1.652157
-5.996393 11.504238 0.395594
-4.957933 8.716439 2.474899
-0.049251 -4.019421 -9.484054
11.518823 -2.970415 2.751349
-5.630591 13.605483 -1.748296
-10.144613 1.395870 -4.576151
4.626260 -3.161116 7.613640
0.128635 16.985486 -0.195972
5.787564 -8.305171 -2.961212
-2.166351 -1.926677 -9.659668
-5.338975 -4.403458 5.734386
4.277474 -12.225232 0.758801
-0.328448 9.304189 -5.640154
1.746384 -2.244423 -9.784427
4.107096 -13.144578 0.403424
16.764956 0.780362 -0.608025
5.342419 0.123271 7.153477
0.029686 3.845030 -9.729733
-4.424732 -6.463836 -4.671495
13.671497 2.458162 0.701352
5.788760 5.383044 -4.779263
2.542569 9.987434 -4.856519
0.635447 4.689267 8.081313
5.769720 9.993050 -2.358786
15.914669 1.442846 0.009832
15.579934 2.185987 -1.025704
-6.148428 -2.895207 6.050530
7.538845 -4.713358 4.492594
-4.252945 -1.292604 -8.173412
4.852178 -1.563511 7.465064
5.199591 -8.299777 5.125419
1.045647 -12.780261 -1.114551
-7.581864 -0.052128 6.519747
15.147006 2.876736 -1.218088
-3.537596 -5.579769 -6.683870
9.681045 -7.063441 -2.542724
-2.298625 9.998799 2.543709
-3.416388 13.457548 -1.499349
14.455865 -2.340754 1.437867
7.970597 -7.315369 2.928126
1.660146 8.237045 4.232128
6.960689 9.989168 3.010795
7.566717 -1.091223 -5.267112
8.359597 8.550805 0.572911
-11.170610 -4.211008 1.284424
-1.600559 4.790818 -7.452353
-15.520490 -2.557146 -1.116649
-5.393395 -4.650148 -7.407213
-16.544186 2.128386 0.541053
-8.146514 -0.725515 4.490962
2.986857 -7.525229 -6.558345
-10.820377 3.762450 -1.061390
6.830944 -11.760793 -1.013535
7.087219 -1.836777 5.962131
3.403591 10.062750 3.400124
-0.919207 -3.850234 -9.285468
0.641236 1.929545 10.566875
11.753332 -6.612339 2.943062
-5.149920 -1.531467 8.045611
5.579565 2.937699 6.242003
13.456746 0.251384 -0.833468
-5.337258 1.978878 7.291908
3.564067 5.473214 7.555517
-3.002288 -6.195898 5.887454
5.668600 -11.304780 -2.250475
7.523361 -1.302169 6.134375
-12.017335 -1.989492 1.595709
0.511886 -6.039161 -6.456891
-7.249172 -2.000070 -6.211439
4.028884 -1.459172 9.027221
12.670567 4.498345 0.468073
12.440316 5.544504 0.162399
1.878963 5.102122 7.358830
1.590693 9.905813 -5.112503
-5.529666 -4.926444 -6.189874
10.295937 -2.200493 -4.598411
6.207103 -10.913201 0.580083
-8.252240 4.793527 -4.053609
5.127108 1.101227 7.756171
-2.739531 -5.827844 -6.533259
0.960672 9.609414 3.391144
-2.873010 1.665658 -9.250320
-4.651972 11.416021 -2.039661
6.298441 -1.818568 -6.004642
-5.169686 -1.185045 8.728874
7.287975 9.204305 0.777651
7.746923 -4.612058 -4.117678
-6.758764 0.109908 6.658312
4.388738 -6.518534 -5.743875
-1.984499 8.871300 -4.494289
-6.892332 -4.787507 -4.255196
1.376696 -9.838506 -2.588042
-5.439597 -7.090306 -3.913269
-0.576012 6.526073 6.545819
-10.276701 -8.163714 -1.952413
3.315092 -6.524193 5.840680
1.834791 -3.007455 9.095588
7.357457 1.231513 -5.949873
5.528922 -7.852901 -3.151487
-5.366278 0.747401 7.174459
-9.895815 -8.135596 -0.554517
-13.073898 0.373848 -0.772756
11.376116 5.287371 -2.165796
8.577890 6.580729 1.689434
16.725097 -2.291429 0.489418
-9.158620 -0.059957 3.528529
6.671780 1.850303 -6.282857
-6.306827 -7.149049 4.586651
-15.487605 -2.611995 -0.528798
-15.902648 0.432752 -0.393521
3.888479 11.829270 -0.327384
4.438782 -13.729100 0.023925
0.798208 4.873487 -8.479596
7.427090 3.885117 -4.788964
-8.677551 9.283319 -3.186881
10.191715 3.676173 -2.213800
-4.572335 -12.284814 2.597898
-4.665476 -1.453063 -7.634099
8.708075 -4.290537 4.009438
-3.325590 11.531230 -1.789902
-9.196927 5.704849 3.846054
-14.487003 -0.156506 0.946146
-6.275605 -9.923752 -1.215392
4.437122 12.172484 2.629508
-4.058405 -12.998895 2.262471
3.210651 -7.688199 -6.236283
9.811883 1.936499 -2.494037
8.553839 -7.808466 3.686842
13.568316 -2.289601 1.802530
8.752145 1.640424 5.728081
-4.396410 14.335857 -1.634863
-6.382539 8.842927 1.609098
-5.356037 13.278862 -0.760762
8.372251 1.724338 5.065160
-5.975522 -4.704457 -5.998816
-6.817861 7.221704 4.669669
3.847461 7.643802 4.475536
-4.648179 -10.222840 -1.959835
7.449043 -7.420071 2.503006
10.769376 4.362595 -2.121327
6.784200 4.366841 5.480202
0.749321 0.051129 11.764122
16.245366 0.939631 -0.686859
-1.118127 1.797565 10.554687
5.299147 10.088353 -2.409234
8.556275 -5.220046 4.083807
-9.482175 -4.997542 1.886263
0.646768 -16.516558 -0.146906
-1.203148 16.101606 -0.756933
-1.976071 -6.769543 -5.437719
12.909450 3.183443 -1.519137
7.622819 9.429129 -0.906216
2.612276 15.422394 0.327061
8.723646 3.090890 -3.332462
9.388567 -3.382913 3.686704
0.804661 10.001512 -4.635987
11.940140 -5.045931 1.467763
13.086398 -2.673544 -0.251546
-5.953124 0.772647 -6.588087
0.239427 -7.651615 -5.617961
8.252823 3.202225 -4.050988
9.364895 8.586358 -1.725592
-4.239416 -4.916890 6.069131
-6.904440 -0.167623 6.569691
-7.875892 -4.210419 5.430701
0.703968 -7.030860 -5.900474
-5.472715 -12.883742 2.443191
0.959183 -12.277330 1.731876
10.536432 -3.073429 3.173527
13.561162 5.308735 -1.152042
2.586283 -1.428268 9.760038
1.248469 4.221748 -9.061636
5.149599 -5.697508 -5.329840
2.468921 4.547309 -8.445111
10.429188 -6.028439 -0.477144
-16.475277 -0.034736 -0.459183
4.454647 -6.027655 -6.801759
-15.035664 1.957904 1.150300
4.740159 10.415463 -1.249682
-5.975737 -10.494497 0.680470
-11.520797 4.397247 2.905237
2.337741 -8.470783 4.968700
-2.008981 -0.085526 -10.683292
-0.465283 8.207257 6.368243
-0.689718 16.229174 0.066477
6.596947 4.384046 -5.596376
-5.328662 4.046017 7.406319
-7.122631 -4.192267 -4.817183
-9.421958 -3.111376 2.660433
4.586626 -3.104956 -8.160363
3.169682 10.922962 -1.129626
-1.914643 11.601238 1.817247
6.847379 9.679967 -2.027967
0.542055 -7.229807 -5.798833
-3.838079 4.091647 7.924405
6.674138 -8.757306 -2.893361
8.848946 5.986488 -2.794798
13.270731 4.903916 -1.849507
-13.502177 -4.927061 -0.357983
-0.257895 -4.349469 -9.110340
-10.805561 -7.714144 -2.763011
-3.662496 -5.842179 5.610593
-0.764903 1.576240 -11.244346
8.898906 1.927010 -4.515678
-7.058221 8.392517 -3.026451
5.442868 4.348781 -7.340101
-10.651309 -7.131972 0.248344
13.051395 0.799374 -1.016489
-2.452135 15.605354 -1.083520
0.619385 11.117727 -1.431772
-2.248442 0.386679 -10.324555
-0.492452 2.797575 9.831111
9.238952 -7.332092 3.858877
-1.401919 -7.471377 6.163370
9.409681 -0.949798 -5.230143
14.784428 -3.997137 1.542775
1.784554 9.532980 3.512939
-4.121269 8.309258 4.093435
-2.929214 6.914455 -6.564044
-0.661920 2.963384 -10.230878
7.320279 6.770992 -3.278434
1.758839 -9.170694 -3.667969
-9.610509 -8.889639 -3.039769
7.709253 3.454904 -5.099667
7.956928 -0.508377 6.033141
0.931973 0.003186 -11.582177
-9.030686 8.905578 -3.325105
-5.153849 2.405700 -8.204448
4.809759 -0.286811 8.137868
3.486541 -7.509568 -5.778810
-12.493242 4.189696 0.290032
11.683675 -3.242878 2.707811
-5.125363 6.392397 -4.435436
-2.466096 2.227231 9.999584
3.977301 9.971441 -4.481476
-8.921330 -6.252271 -2.802924
-8.649116 -2.214617 -5.031322
-0.121182 -4.117002 9.022848
11.227623 6.338866 0.368107
-4.623518 6.510564 -5.130797
5.211376 10.210740 -3.495165
-0.670331 -7.976221 6.212723
-11.183666 -2.822438 -1.801471
-4.307947 -10.741142 -0.950123
-8.549990 7.790549 3.670286
4.786201 4.661281 -7.607896
-4.441046 13.445281 -1.727611
0.825359 16.371115 0.355922
4.360299 4.419933 -7.639194
0.576950 2.928800 -9.799389
2.808238 -2.553748 9.026339
14.373635 1.696506 -1.021028
4.507100 1.107427 -7.991119
-8.044709 1.117336 4.391037
-3.920685 7.087953 5.580763
-2.730959 -13.391531 -0.174367
7.250962 4.252770 -4.439407
12.763711 6.520168 -2.029629
11.485906 7.007565 -0.889402
-2.889958 8.219563 -4.827276
8.006322 7.745470 1.363293
-3.339080 -2.611530 -8.268994
-0.449128 8.978920 3.595599
-5.363797 -10.672133 -0.566236
3.394713 0.466646 -9.918913
-1.824334 5.241209 -7.014501
-4.121229 11.103917 1.352249
-13.719151 -3.871268 0.228256
8.517598 0.499313 6.338976
-9.883362 3.391673 3.483226
1.734127 6.298867 -6.019083
-8.043423 -5.910868 2.707851
2.484921 -2.479996 9.775268
15.926198 1.053648 -0.738993
-11.898271 -2.182984 1.595781
13.317517 -2.822261 1.980832
2.146442 5.593714 -7.182192
-0.681174 -17.002403 0.031480
7.366677 1.675351 6.155648
-7.090004 -9.941053 3.131849
-6.911878 -10.481141 3.024596
4.234190 10.414128 -1.524887
1.507137 -8.515895 5.462058
-6.452118 1.601297 7.005480
-2.843041 -0.166410 9.711074
8.234437 -9.252357 -3.093320
0.893264 10.084275 -3.148545
-10.098647 7.302607 0.028222
-13.009895 -5.875332 -1.223349
-3.160465 14.913403 -0.257411
-8.367161 7.361311 3.154018
10.396406 3.713788 1.868169
7.251420 -6.940142 4.529729
1.246491 17.391081 -0.030211
-13.715633 -1.443585 0.964626
-3.832873 5.807081 5.829394
-3.834493 5.759358 -7.081561
-8.564807 3.934744 -4.296915
8.347366 1.128996 5.375373
10.500959 -2.444917 -1.918112
-8.528308 -1.238210 5.633341
-14.146464 -0.530229 -0.791269
-11.613153 -7.121642 -2.530734
4.683343 3.646381 8.079137
-8.986404 3.419779 3.866930
7.788018 -0.609760 5.794020
0.492606 -2.678180 10.052070
-9.959663 0.702698 -4.315576
8.632007 1.441371 5.671770
-3.421345 -1.624080 -8.854960
-7.142527 2.652895 4.896700
-0.280963 -7.959504 4.588263
-9.123620 -5.092688 2.085265
0.648990 -8.939139 -5.714085
-1.740107 6.806183 6.221389
-5.113365 -12.025662 1.585505
7.931885 -7.417354 3.094781
1.238152 -14.604219 0.625313
12.880505 -0.996432 -0.680262
-6.241375 -2.181576 6.234416
0.414309 0.085353 -12.094505
-7.034748 9.561781 -2.793745
11.743039 7.173400 -1.828548
-13.242152 -5.565433 -1.060027
4.987322 12.127365 2.691573
0.280978 8.094714 6.036402
-6.832591 -1.285620 6.333445
-8.350611 -2.242657 4.097427
-5.729937 4.843890 -5.241924
6.481334 -12.393036 -1.388762
-10.960644 -0.438901 -1.656632
6.679764 6.509668 -3.517861
-8.168279 -7.538824 4.418741
0.383881 12.234007 2.042408
-14.010062 1.389557 1.477578
10.635262 5.232474 1.141696
3.449840 -7.362079 -6.689296
-4.691275 7.873982 -3.342235
3.812912 -15.038682 -1.263425
9.271958 7.608257 0.669125
-5.453571 8.090516 3.025160
-2.426876 -8.008538 4.352646
-1.007874 -4.410422 8.555059
9.427480 3.623939 -2.557986
-3.051230 -0.904918 9.391684
-2.576266 0.667996 9.829984
-2.981382 2.330702 9.330568
8.136605 4.964745 3.506484
-6.462864 11.735091 -2.365429
7.990667 7.565103 -3.187022
3.110362 -0.372276 9.406437
-10.260887 3.852929 -3.006653
-11.537164 -4.084569 1.147986
10.221832 -6.018044 1.065898
-3.097492 9.103400 2.899715
-9.355145 3.999064 -4.364633
-2.944143 11.415772 1.602321
3.091232 15.314703 0.694483
4.948187 -1.431727 -8.554832
5.804454 9.795386 -4.036936
2.088874 10.833234 -1.454174
9.440015 -5.828755 3.757430
5.094688 -13.534997 -1.868725
-4.335966 4.598810 6.229942
3.136080 -10.199816 2.172026
2.380791 7.111119 -5.084643
1.468615 5.739458 -6.929355
5.580901 -9.617122 1.534003
-10.091531 5.551822 -1.533753
10.235320 -2.122072 -3.368437
-5.347225 6.117024 -4.491157
11.674729 -5.014816 1.197388
8.378257 -0.742732 4.130293
7.688372 -0.290981 -5.457381
3.708115 1.732061 8.528465
3.149356 -1.075311 9.479327
-5.213883 -6.055875 -4.513568
9.365688 6.029088 -2.675798
1.495666 12.443267 -0.687025
11.144404 -2.792761 2.891433
6.701871 3.445869 5.759810
9.622522 0.324237 -5.342360
-2.428450 9.799635 2.626224
-14.069246 -3.607931 -1.476703
9.217186 -7.926318 3.832295
-8.132090 -0.412412 4.452969
-10.359935 -5.580429 1.133706
-1.379134 -10.319055 3.090058
4.008049 11.714875 -0.340098
1.473226 -9.884561 -2.512077
-3.325947 14.664734 -1.362978
16.142064 0.824785 -0.668951
1.725607 11.595889 -0.969270
-1.591184 -10.169199 -3.432801
-0.479848 -13.525521 1.489821
13.268393 1.559805 1.135708
-2.736133 -15.705758 0.498702
-14.945943 2.489620 0.035095
4.260132 -10.036320 1.865440
-4.130920 3.208508 7.743786
-0.746642 -2.749692 9.677453
5.531289 11.117832 3.117875
0.898117 -11.281913 2.217684
4.809472 -2.813406 7.532371
7.320488 -2.986455 -4.772614
8.638644 7.036553 4.478024
8.307394 2.260987 4.444557
-6.978547 -9.629026 -1.433264
2.780021 -3.376350 8.205267
-7.592269 -1.569844 6.155096
4.161384 12.509214 0.191356
-9.554727 -1.880831 -2.808142
1.428578 -13.153944 -1.129553
-0.409771 -16.650811 -0.343194
3.497646 -2.222343 8.556538
-2.249180 3.161232 -8.634417
-11.286456 -5.886718 0.546520
10.780309 0.186656 -1.744934
2.294747 12.215721 2.365978
0.363508 -9.185494 3.465787
6.123790 10.114077 1.945537
0.172383 -4.039133 8.942971
4.325263 3.699709 7.993255
-6.038791 4.440989 -5.103291
5.119025 2.087488 7.509193
4.763177 3.766854 6.597726
-8.202827 -9.188532 -1.981808
14.348005 -3.906802 1.705979
4.691136 10.204290 3.418509
-5.966706 -1.421748 6.532222
-7.576998 -2.643180 5.885429
-12.566611 -2.028477 -1.350224
-12.648142 -0.585273 1.659648
5.234480 -3.554606 -7.608763
-2.747428 5.025592 7.481658
2.629456 10.377034 3.204603
4.346240 1.860297 -7.777546
4.724860 -2.250895 7.511378
-6.510990 -5.946625 -3.740798
-10.152508 0.156724 -2.513186
12.063510 6.680011 -1.246472
-9.079756 6.466942 3.902203
-8.685658 7.597477 -3.457587
-7.659610 3.342518 4.493502
-0.946448 7.586146 -5.834610
-10.073143 -6.781045 -2.663358
5.054233 -8.167859 3.199928
1.586138 -5.148350 7.561620
-10.730229 4.949262 -0.686134
15.489514 2.134457 -1.021014
2.978168 -0.565521 -9.782282
2.377633 -14.079911 -1.200237
7.828640 6.981750 -3.153903
-9.039673 -6.240530 -2.770292
-2.563014 -14.062776 -0.099609
-0.573296 -4.203623 -9.448450
14.467693 2.400401 -1.173010
6.344729 -5.241426 -4.280901
8.142236 -7.195800 1.955042
11.116372 -5.429855 -0.192664
4.589807 -2.537986 -8.417584
1.900225 -15.345970 0.127600
3.722553 9.651513 -4.481135
-11.547445 -7.699686 -2.672262
-6.360727 -7.158273 4.581611
-11.704724 4.612436 -0.176006
5.026034 0.478974 8.597926
-0.915905 2.211479 10.628673
7.597347 1.487356 -6.003712
-7.934604 -8.779390 -3.421529
-8.482460 -2.795921 3.664400
10.603275 0.601717 2.620352
8.680870 -9.639445 -2.497948
-15.133857 -1.302412 0.380976
-2.031721 -0.730852 -10.947765
0.145516 4.102130 -9.426663
-10.057874 -3.827581 2.011309
4.539200 -4.758951 -7.570936
-0.218067 9.184952 -5.589998
9.983980 1.576302 -2.382575
-5.435307 -3.358628 6.142260
-5.155201 5.890704 -5.052359
9.831845 -7.336181 -3.530689
7.355147 -4.381882 -4.256859
-4.124162 6.626491 -6.437861
-1.234164 -0.910006 10.966412
2.156051 -1.510509 9.988743
-9.521459 7.118470 0.623591
-6.446083 2.017499 -5.758505
5.309062 -2.963176 -7.682715
-6.709105 -10.959543 2.909798
-0.341662 11.564673 2.206638
-8.698563 5.394878 -3.928728
3.333238 1.751075 8.730251
8.933636 -7.635236 0.737338
1.453106 -7.618049 6.182792
-13.919992 -4.289568 -1.645802
5.307371 -1.999739 -7.840359
1.176407 12.500125 -0.741457
5.008027 -1.232803 -8.369851
9.896135 0.752040 -2.717925
-3.232565 0.650847 9.366492
-5.168883 -13.640182 2.022750
-3.115028 4.980500 7.721761
6.289246 -6.046212 -3.856486
6.704745 9.911314 -3.233244
1.233212 10.163739 -2.975229
-4.880373 6.037771 -5.391136
-4.450338 -4.366781 7.115558
-1.794694 -8.591948 -4.918038
7.801139 9.413228 -2.390038
10.541280 3.294397 -2.057278
7.035399 -5.648601 4.644864
-6.462912 12.639640 -1.744426
6.595818 4.130136 -6.523029
-3.817050 9.971153 -2.298262
-9.774309 4.861113 3.606125
-8.583958 7.551484 1.079741
-1.877796 -3.576849 9.314446
2.979461 11.570488 -0.697948
1.162801 -9.248702 -4.983083
-4.845056 -11.047721 -0.452583
-8.680008 -3.005937 -3.448698
-10.688662 -7.043258 0.276561
6.470966 7.291734 4.529823
4.510488 -14.486474 -1.649894
-2.620881 15.082248 -1.166224
13.154811 -1.384926 1.822721
-2.526994 -11.546076 2.683366
2.779800 -8.597934 -3.850613
-9.817861 -5.990166 1.235566
12.690275 1.865287 -1.296255
-1.491745 5.820503 -6.611444
8.664586 7.319184 1.179063
-8.286137 -1.965438 4.388658
13.111575 3.667840 -1.592685
5.226844 7.843694 -3.918886
-0.071326 3.907915 -9.559248
10.794148 2.689775 1.991127
-3.322460 -1.990221 -8.674418
-5.938099 12.980316 -1.287223
0.226444 14.920893 0.829514
1.448962 11.455563 2.573739
-8.747975 -6.329871 4.623909
-2.971863 -5.010878 7.511565
-1.880568 -10.228805 -3.019484
3.444531 -1.534170 -9.050830
-1.053264 9.473517 -3.644280
-12.865949 3.234087 -0.167339
-1.154372 -10.088973 -4.572044
-4.418684 -1.616614 -7.812581
-2.263953 8.711622 -4.481966
-1.512005 -12.636834 -0.629976
1.371745 -5.507517 -6.850764
-14.762058 -3.821086 -1.466719
4.818407 5.466943 -5.782389
-8.388562 9.355403 -3.112492
5.677811 -4.134467 5.493658
-5.068246 3.243617 7.547381
-0.732357 -11.901372 2.258866
-7.862874 -2.450815 5.908817
6.785103 7.012545 -3.448645
-9.313379 -2.134130 3.022432
3.122631 -3.329043 -8.080220
2.173232 5.429097 -7.568069
12.415536 5.596560 0.151409
-12.291105 -2.225897 1.398637
-5.874250 7.745268 -3.164497
-8.253712 -7.824243 1.123399
7.975121 -9.309478 0.437317
-6.427455 -1.371094 6.391131
15.625242 0.395669 0.398588
9.539273 8.615128 -3.137873
7.273141 5.977449 -3.343777
1.025511 11.558137 2.464628
-5.004785 -10.330497 -4.039585
-4.899377 -13.567178 1.792654
-12.171455 -3.621028 -1.720869
10.684181 2.022911 2.237309
-3.377716 -15.792047 1.048850
13.592573 4.951235 -0.579770
-13.363195 3.405088 -0.011482
-12.986708 1.786884 -0.487779
15.579982 1.450473 0.152493
0.584669 -0.131741 11.959147
-12.319830 -0.729844 1.775614
-11.912915 -1.444045 -1.395828
-0.545939 -4.816168 -8.454012
-7.336976 7.670036 -3.224519
4.046222 -10.727790 1.568286
-10.582814 6.021281 3.352429
-5.480745 13.811483 -1.929640
-14.272671 1.865458 1.451840
-8.456579 9.570056 -1.590249
-11.622406 0.999416 -1.100613
-4.260669 10.469684 -2.177991
9.674856 -7.095248 -0.912224
-2.718067 -0.680434 10.004614
0.263722 0.996469 -11.478143
4.635333 -6.946857 -4.374523
-7.306214 6.563080 -3.517853
-6.953182 6.373658 -3.593115
3.610990 3.281628 -7.869492
1.662452 1.637808 10.276992
10.225451 -1.948783 -3.253354
-10.239618 1.981403 -4.339803
9.233518 2.670643 2.936150
-8.301579 -0.859007 4.214886
-11.065052 -7.493356 -1.433496
3.616188 -1.808610 9.441647
-5.066376 -0.667304 8.527558
5.599991 4.585816 -7.264325
-8.428701 9.998632 -2.290648
2.593135 11.184632 -1.038193
12.044537 3.849132 0.995465
-8.262157 -7.564821 4.409574
-7.586500 3.202116 4.542087
8.328930 8.135337 0.871768
-1.574463 8.897305 6.054710
12.086978 -6.038127 2.489444
-7.061047 -9.762648 -3.792469
-8.218199 -6.296450 -2.993084
-1.960535 2.894564 -9.074807
2.191931 -9.487350 2.895781
0.953384 -14.228869 -0.864392
-1.428265 11.143079 2.160963
8.966811 8.947655 -2.343258
6.580446 1.666678 -6.272759
-7.745993 -7.686314 4.377236
3.508663 -3.804306 -7.733043
-1.597850 4.780801 8.551567
3.340048 -9.934248 -2.309954
9.207460 -4.330700 3.804298
8.367045 4.132538 5.422400
4.466006 1.899590 -7.651507
0.819901 -4.119876 -8.669131
-9.116719 -8.714721 -1.683756
1.512870 -7.661962 6.162518
-0.323088 8.550929 6.378417
2.969650 -8.243868 5.745697
7.819796 -6.965094 -3.451851
4.422772 13.747601 1.441611
9.774167 2.569852 -2.424718
-7.738902 10.968054 -1.920424
-6.532715 1.521798 -5.792875
-8.283410 -2.976493 -4.406588
3.304381 -8.053416 -4.382386
8.208631 0.294589 4.318783
-7.471137 -2.873405 -6.514608
4.114518 -13.257477 0.350077
-2.467916 10.353995 2.295338
-2.013779 -15.871988 -0.024055
-3.941930 -5.159285 6.759158
1.431420 -15.675553 0.115253
3.854184 10.236793 -4.567404
6.389249 7.963159 -3.599688
0.384706 4.271552 -9.320770
10.249702 -1.765849 -4.944921
2.426908 -4.679014 8.331891
-4.323450 -10.234939 -2.457555
-13.180819 5.600482 2.294755
12.811504 5.233236 -1.970302
-0.287460 0.149265 -12.203220
1.258275 -8.629760 3.782099
14.877283 -0.057362 -0.576532
-10.716259 -0.616830 2.564161
-6.037193 -1.491403 -6.493950
1.361462 5.856658 7.077456
-0.278958 -9.685788 3.261776
12.784457 0.494132 1.614525
8.014361 3.038095 5.741346
1.215381 8.783075 3.873503
-14.531657 -4.686306 -1.686338
-2.324384 1.531410 9.895305
-8.481741 9.504333 -1.533052
11.912958 6.467855 -0.073904
1.302550 -16.133327 -0.168444
5.607379 -13.362295 -1.328742
-1.917958 7.951568 6.037771
-2.399980 10.716669 2.115333
-4.528196 -5.614137 -5.773170
8.744974 -9.071162 -1.729650
14.491267 0.408738 -0.716349
-2.113377 9.497660 2.907136
14.239358 0.002265 -0.663436
1.734337 4.013985 8.317888
8.815677 5.922368 4.895948
-11.761573 -5.010027 0.696626
12.118007 2.959677 -1.606877
7.166092 -5.997748 -3.699588
-17.077388 0.336237 -0.139440
9.864773 8.631171 -2.677817
-0.628126 14.491986 0.827674
-1.494833 0.325779 11.350381
-6.050150 8.543605 2.027203
-3.627551 -8.239545 -4.382819
6.642890 8.558803 4.088740
-7.970270 -8.580157 3.839093
9.865159 -7.301826 -0.297045
6.402356 -6.076074 -3.813310
