1.889710 -0.376829 40.093138
1.664503 -1.618655 40.672713
2.505236 0.751620 40.795204
1.796909 0.461151 41.391479
2.017271 0.072845 40.253526
1.441862 0.795698 39.195714
1.955715 1.408104 41.857959
1.414877 -0.212036 38.971343
1.248594 -0.358161 40.046597
1.169512 0.631843 39.225333
2.421939 1.731326 39.377297
0.456958 -0.418244 40.027263
0.415185 1.608899 39.055062
0.501382 0.223252 39.248825
1.061397 -0.517934 40.046561
1.740469 0.415479 41.409232
0.648394 -0.023690 41.526449
-0.125096 1.445183 40.923004
-0.059221 0.140988 41.016936
1.149254 0.137021 41.613434
1.014762 -1.219772 39.860733
0.245122 -0.917070 40.865714
-0.030855 1.879086 41.116123
1.061682 -1.228042 39.813527
0.655363 -1.552883 39.922651
2.552412 0.495931 40.433632
1.330675 1.942690 40.394409
2.133196 -0.007430 41.037266
2.125124 -0.079408 41.076903
1.444436 -1.476741 40.175310
2.564860 0.894441 40.649392
1.059220 -2.146039 39.673994
1.888614 1.881966 40.804603
0.633313 -1.602464 40.080926
0.280037 -0.209864 38.690095
2.063113 0.014399 40.130047
2.511341 1.571376 41.284242
2.096334 1.551920 39.181368
1.996504 -0.115927 38.646192
0.660051 -0.448222 39.951281
2.467385 1.114829 40.986417
2.531207 0.432122 40.182574
0.811391 -2.330574 40.266244
-0.285708 1.492238 39.958220
1.275832 -1.824475 40.883823
0.249131 -0.140299 39.367266
2.294955 1.971410 40.147156
1.352048 0.376256 41.635806
1.720228 -1.247385 41.062669
-0.243117 1.598603 40.148041
0.692635 2.078818 39.501151
0.442895 -0.372002 41.018079
1.908383 0.030674 39.755509
-0.135593 0.667856 40.857362
0.058745 1.869440 40.991207
2.238032 0.446886 41.566068
0.390891 1.962048 40.372971
0.927471 1.759996 39.012525
1.712857 -0.430811 39.206704
2.377001 0.005337 41.169299
0.839059 0.332425 38.981566
2.281491 0.133421 38.695589
0.014248 0.547602 40.993141
1.132027 -0.077361 41.557605
0.623950 0.595747 39.286121
1.002078 1.940695 40.436903
0.041902 -0.099175 40.965204
1.028621 2.078062 38.800162
2.645145 1.423551 40.185644
1.077267 1.994606 38.900455
-0.054988 1.913650 41.013845
2.710366 1.722250 41.104033
1.668782 0.490899 39.351381
1.708586 -1.337510 41.012413
0.747733 -1.376019 39.923573
1.245650 1.978255 40.167875
2.735272 1.761422 40.252387
2.405457 2.096490 40.632115
0.135881 1.219666 41.797677
1.369769 -0.158953 38.962050
0.840558 -2.285048 40.310123
2.561086 1.522231 41.098271
1.053543 0.834742 39.195401
1.845566 1.860659 38.989573
0.626623 1.835262 41.166265
1.767299 0.457451 41.489666
2.101690 -0.386050 41.045411
1.644242 2.340753 38.956244
1.891593 -1.150261 40.975438
0.048754 1.281955 41.804511
0.470036 0.397480 39.267965
1.972940 1.812150 41.184586
-0.032517 1.953056 40.716760
2.701673 1.745214 41.125508
2.550316 1.372579 41.669523
0.389690 -0.121102 41.329517
2.467541 1.386708 40.702821
1.838818 -0.344409 39.086399
-0.255760 1.575275 40.265223
1.405745 -0.139347 38.705363
-0.285149 0.696217 40.691398
1.895180 0.513097 38.831756
1.041378 -0.244789 38.843457
1.223972 0.369498 39.292875
2.394338 1.243070 41.263464
1.893531 -0.263242 38.824856
1.144252 0.048367 38.732008
1.595900 -1.864791 40.462557
0.828580 -2.337192 39.896359
2.303479 0.267496 41.046526
1.750725 1.087786 41.849119
0.605824 0.329913 39.070432
0.293875 0.252743 41.164718
2.668390 1.995705 40.984577
1.212513 -2.124989 40.342086
0.451634 0.324101 39.703926
0.501000 2.050526 39.803221
0.143826 1.885829 39.158829
2.614103 1.768585 39.065495
2.497423 1.197382 40.862646
2.252355 1.549453 41.865192
1.007632 1.853331 38.988848
1.834448 -0.410428 39.130060
1.161378 1.710822 39.319586
1.061719 -0.304670 38.825008
0.307093 1.904212 40.739897
2.759879 2.157047 39.164415
2.446030 1.035299 41.872062
1.344044 -0.511293 41.408605
1.295124 -0.014370 39.261393
1.375842 1.765224 41.602399
0.468230 -0.419606 41.096217
1.601660 2.294909 39.256211
1.477294 -0.066614 39.297484
1.413195 1.653555 39.124950
0.876968 -0.001326 39.308387
-0.281717 1.823430 40.081868
2.327810 1.880114 41.492393
0.898527 1.971750 40.230329
0.730184 -1.395728 39.951195
1.769686 -0.371504 40.845664
-0.206714 1.461874 40.743778
-0.329343 1.909230 40.672836
2.582303 0.956508 39.367878
1.521102 2.131360 38.839967
1.777226 -0.224659 38.883378
0.796354 1.631242 39.194391
0.991402 1.692495 39.077946
2.667649 1.975143 40.839818
1.578408 0.989725 41.750067
2.222589 2.005601 39.875112
0.751234 -1.626770 40.963200
0.738249 -0.092604 38.675352
1.070901 2.025723 38.835400
-0.243928 1.923627 39.617978
1.663965 2.021430 39.896941
0.036027 0.125551 39.141445
0.311158 0.012278 39.550804
1.883878 0.289662 39.427488
2.465127 1.657219 40.271628
0.638584 0.331179 39.050479
2.362502 1.740766 39.340270
2.502247 2.305328 39.032756
-0.232553 0.978194 40.910637
-0.123446 1.827387 40.459643
2.433505 0.641308 40.986009
2.666370 1.888797 41.222142
0.840297 1.871865 40.890000
0.359469 -0.410774 39.702522
0.014012 1.965095 39.273542
0.452427 0.707752 41.618534
2.380636 1.918849 38.965730
0.629548 -1.275304 40.357313
2.697663 1.763343 40.052560
0.432511 1.484628 41.730998
2.548270 1.865005 41.614174
0.416843 0.221277 38.782389
1.591138 0.863615 41.736605
0.351929 -1.102262 40.934713
2.010582 -0.472474 38.832203
0.468886 0.537339 39.604704
-0.061249 0.842519 38.846708
2.699794 1.923529 40.835556
-0.099353 1.735468 40.450645
1.483475 -1.842309 39.969187
1.773150 0.384159 39.205539
1.585839 -0.168375 39.579927
1.623868 -0.229742 41.457587
0.318674 0.222151 40.192756
2.543223 0.442822 40.689597
2.023798 -0.444682 40.448965
0.995247 2.293980 39.125278
1.210845 -0.043353 39.042500
0.859420 -2.263825 40.035529
2.411488 1.358016 41.112359
-0.281695 1.288228 40.139972
0.410053 -0.921182 41.002334
0.254858 -1.058153 40.841794
-0.008693 1.591172 39.078513
1.588762 1.927206 40.468780
2.468124 1.501810 40.778777
-0.255794 1.768062 41.211606
0.685593 -0.947764 40.132030
0.919863 -2.227491 40.001402
0.195529 0.418917 39.514784
0.154405 -0.044621 40.216783
2.035621 0.415214 41.618745
1.237824 1.861688 40.907853
0.315592 -1.106373 40.901398
0.675293 2.048723 39.794640
0.838874 -2.044792 40.190106
0.861398 1.292764 41.748091
2.671954 1.691637 39.257007
2.521729 1.374679 41.772577
-0.228206 0.193106 40.842721
2.367562 0.525030 39.181872
1.107173 -1.757394 40.954283
1.345417 1.549250 39.153871
1.604332 -1.054192 40.266956
1.731668 1.687897 39.259470
2.361397 1.770897 39.268927
1.244693 0.915042 41.752245
-0.257508 1.409206 39.475766
2.196198 -0.182350 41.114199
1.358857 1.174905 39.138601
1.015573 0.176626 41.596651
2.764922 2.017240 39.054788
0.847385 -0.192480 39.933268
0.896284 -2.021854 39.663428
0.223334 0.523102 41.070392
0.733666 -2.053703 39.782617
1.134527 -2.359572 39.940163
0.405883 -0.992179 40.310013
0.915608 1.293863 41.756748
0.964840 -0.574865 40.053618
0.727340 1.996851 40.105015
2.466243 1.242416 41.350128
1.482121 1.579859 39.147896
1.206350 -0.043703 39.041501
2.405715 -0.055799 40.977242
1.820843 1.747009 41.649206
-0.422017 0.985961 41.365516
1.974990 -0.720390 40.525481
0.008201 1.310505 39.046600
0.082750 2.011204 40.085318
-0.044945 1.030443 39.221151
1.561247 1.351743 39.113257
1.231170 -2.090058 40.152086
0.481703 2.021795 40.014136
1.839476 -0.493919 39.953625
-0.293740 1.625783 40.964235
2.607909 1.610778 41.253141
1.384396 0.144999 41.619713
2.568998 0.535205 40.613706
0.551925 -0.120884 39.565109
-0.255628 1.292640 39.932854
1.352338 -1.804521 40.862215
0.676343 0.257371 38.817383
-0.009560 1.846730 41.183258
0.124756 0.174415 41.024615
-0.292159 1.205553 39.749187
2.549557 0.478976 40.480284
2.030674 0.395418 41.244259
1.452794 1.757606 41.659355
2.390859 0.253206 38.832588
2.449854 0.602143 41.549968
1.299757 2.362452 39.100820
1.548318 1.136126 41.749870
1.528335 -0.850025 41.264749
1.622757 2.240655 39.267204
2.000454 -0.483137 40.859426
1.051649 -0.188544 38.861676
1.434385 2.025077 39.805837
2.500295 1.365648 41.236718
0.345713 -1.212463 40.878153
0.501531 1.783397 41.548344
2.653994 1.747417 41.501196
0.258735 -0.753747 40.870295
0.392658 -0.832500 40.950810
-0.255266 0.381248 40.707026
0.162548 0.299186 40.219251
0.728186 -1.544850 39.787487
-0.282016 1.583220 41.005081
-0.127399 0.686480 39.387057
1.391289 1.722270 39.298726
1.401939 -2.344351 40.408219
1.119668 2.281978 39.203776
0.661725 -0.786934 40.099390
1.914008 -0.219621 39.418086
0.058110 0.622366 39.649701
1.897617 -0.335255 38.995294
1.973399 -0.457089 40.861865
-0.271628 1.407731 39.943943
0.361122 0.321192 41.311730
-0.317197 0.965291 41.582341
-0.320710 1.980703 40.281504
1.013094 -0.143874 38.885187
0.507253 -0.430090 39.817694
1.125327 1.938168 40.430490
1.991069 2.353291 39.137609
1.044413 -1.281514 39.705520
2.503766 0.374223 40.182376
1.768289 -1.453149 40.809647
2.376005 0.508490 39.172327
0.287140 0.185617 40.228804
-0.074035 0.132951 40.422142
0.462810 -0.906733 41.068384
1.113903 1.040824 39.152389
0.534136 0.573763 39.123895
2.700420 1.821921 40.804444
-0.247817 0.887599 39.724633
-0.009231 -0.213902 40.941967
0.714253 2.000196 40.088374
1.154624 1.313355 41.787505
1.236304 -1.230124 39.999441
1.436368 2.087242 39.410376
0.448366 -0.563438 40.927400
2.015391 -0.020366 39.973737
1.937770 0.192576 41.128772
0.753386 -0.041433 39.510712
1.953420 0.106042 39.324328
0.392766 0.927052 41.780719
0.472243 0.387665 39.260054
2.013155 1.890436 40.667539
2.051282 1.452754 41.857661
0.305973 0.521250 41.244720
2.345771 1.910361 40.571950
-0.242980 1.563598 40.121151
0.051176 0.571484 41.576757
2.229882 0.426093 38.657790
2.680166 1.846013 41.238526
2.681596 1.773319 41.177464
1.571021 2.315277 39.247665
0.348567 0.077141 39.649051
1.275339 -0.517471 40.021987
1.454558 -0.504361 41.396604
-0.351263 1.814783 40.902615
1.936087 1.278934 41.859268
2.216169 0.028066 40.533924
-0.183435 0.588551 39.978235
1.020552 -2.121045 39.661805
1.825075 0.432243 39.368064
2.677905 1.434854 39.855085
1.526512 -1.798594 40.170317
1.724753 1.919095 40.480983
1.940528 -0.141766 39.996392
0.884399 1.634339 41.787979
-0.297538 1.739705 39.870692
0.267951 2.018887 40.054329
-0.279473 1.899324 40.168698
2.652552 1.913312 39.001824
1.776035 0.152726 38.936412
0.416638 1.602939 39.055173
1.000296 -0.330554 41.461701
1.558174 1.267520 39.124291
2.684478 1.763642 41.197437
1.274625 1.821794 39.158797
0.158436 -0.524596 40.720335
1.537764 0.708646 39.228102
0.583939 0.389540 41.501997
1.791554 -0.914932 41.059014
1.053398 1.305325 39.125416
0.288717 0.314120 41.049365
1.856112 0.439145 41.415368
0.714403 0.073853 38.709003
0.023504 -0.183312 38.784093
1.760739 -1.473833 40.699903
2.413670 2.322568 39.138034
2.156411 1.916226 40.460103
-0.082741 1.658965 41.755155
2.237789 1.340201 41.194244
0.104290 1.440580 41.808598
0.246851 0.139285 39.873936
1.890863 1.730183 41.757553
2.650831 1.762239 41.467964
2.574359 2.232422 39.772028
1.996274 0.039407 39.291427
1.853048 -0.486107 40.124162
2.664837 1.654553 40.938439
-0.306727 2.035551 40.105935
0.240969 0.622542 38.683269
1.455587 0.452322 39.267228
1.862534 1.724434 39.073365
0.639935 -0.064608 39.195457
0.162118 1.983636 40.284574
0.479625 0.181036 39.329290
0.330868 0.796347 41.729315
1.674355 -0.346310 39.620918
2.674376 1.606213 41.533223
1.738055 1.769101 39.130129
0.728279 1.511368 41.737803
1.692600 -1.571963 40.701871
-0.039690 1.198710 39.142459
0.351253 -1.398450 40.613727
0.790875 0.838549 41.691287
-0.213277 0.678395 41.475667
2.196678 0.190813 40.915362
1.281554 -1.047866 41.251054
-0.168030 0.600824 41.415948
1.646161 1.939094 40.391118
0.732532 1.215391 41.710056
1.488740 -1.841651 39.982421
2.228283 -0.158044 40.700762
1.140859 2.158331 38.814238
1.004564 -1.149400 41.227033
1.095669 -0.609395 40.066926
1.143017 -0.057544 39.647578
-0.237689 1.834089 41.249261
-0.223032 1.985793 40.707424
-0.282213 1.326790 40.445942
1.734385 1.957089 40.270059
2.274299 0.757113 38.841786
2.281436 -0.056025 39.136376
1.578502 -0.451945 39.839899
2.688760 1.243830 39.953538
0.904860 -1.463845 41.080365
1.378975 2.359847 38.941699
1.615596 0.380064 41.582425
2.286021 1.387054 41.865748
2.051238 1.498387 39.155636
1.444491 -0.373101 39.958029
1.415127 -1.206005 41.202838
1.648903 0.207872 38.893445
-0.129147 0.882727 41.718257
0.145378 0.615218 38.655610
2.509707 1.995726 41.345269
1.418723 -2.192478 39.933425
-0.303076 1.708439 41.078688
0.928227 1.472405 39.106120
2.420103 0.042733 41.060159
2.489917 1.784589 39.062083
0.737054 0.865958 41.683726
1.603474 2.018825 39.902889
0.184230 -0.665862 40.775539
1.885908 1.914163 40.525345
2.527493 0.429195 40.337385
1.153548 0.499991 41.718231
0.702623 0.797393 39.221066
1.230570 -0.316672 38.692148
1.671008 -0.536491 39.966080
-0.120345 1.590855 39.222950
1.269534 1.363543 41.778251
0.728565 2.076095 39.510026
-0.407030 1.103411 41.255371
1.133210 1.371577 41.788348
0.261095 1.892713 40.818455
1.793635 0.543724 39.311115
1.666079 -0.254977 39.347364
-0.122703 0.662100 39.742561
1.918232 -0.290844 39.904723
0.562801 0.354989 41.500300
1.068586 -0.067617 39.679596
-0.279838 1.439648 40.345351
0.795892 2.145267 38.884473
2.255984 0.225502 38.663197
2.315745 0.431649 39.586991
0.050478 0.629082 39.919737
0.083888 -0.043031 38.619664
0.471844 -1.375532 40.958378
2.391795 -0.009214 41.116507
-0.134159 1.376209 41.106979
2.560480 1.980971 41.413774
1.975272 -1.042179 40.847919
1.308910 -0.168168 41.540209
2.424584 0.541490 39.542677
1.810603 0.291695 38.888574
0.522649 -0.326705 38.995639
2.267447 0.820461 38.974194
1.249809 1.898046 39.041601
0.701807 1.765842 41.650642
0.664392 -1.404958 41.048774
1.783265 0.369014 41.345217
-0.340250 1.773232 40.855563
-0.309594 0.688731 41.295184
-0.019191 0.098864 38.738737
1.967582 0.371369 39.974707
1.724598 1.931294 40.418792
1.896013 -0.651978 40.438226
-0.047784 0.296373 40.951028
2.261567 1.352894 41.848430
0.377014 1.740895 41.664265
-0.127667 1.725282 40.347315
2.394562 1.346134 41.229146
0.887878 -0.076613 39.687375
1.087301 -0.047379 38.989467
-0.283528 1.504078 41.678538
0.503570 -0.710227 41.110171
0.456927 0.327557 39.504035
0.297210 -1.183383 40.489576
1.134799 1.857186 40.959944
1.285151 -1.219451 41.212674
2.289522 0.326169 38.702208
1.294640 0.312998 39.218756
1.543087 0.319566 39.106711
1.426346 -0.558754 41.384120
2.001677 2.355532 39.053264
1.052281 -1.527077 41.077579
-0.192961 1.448178 41.261365
0.816488 0.070591 38.691514
0.551547 1.079095 39.184716
1.208337 -0.527671 41.403555
2.594124 0.923191 41.247384
1.485056 -1.468792 41.051186
2.323111 0.504415 41.242584
2.119204 -0.247931 40.464299
2.191756 2.119993 38.914654
1.849448 -0.415157 39.187616
0.972955 1.761651 41.656202
2.719839 2.070702 39.907721
1.303417 1.967663 40.244001
1.143143 -0.042972 39.013844
1.936208 1.618890 41.901911
0.592902 1.726183 39.228835
1.297882 -0.955837 40.051617
1.242922 -2.164501 40.687762
0.197047 0.355562 39.451759
0.140931 -0.323692 40.666632
1.377961 1.860167 40.908840
2.579102 0.731377 40.072453
0.896202 -1.596947 41.011967
0.633453 -1.651192 40.886109
0.449932 0.654668 38.906839
0.267749 -1.002364 40.876440
1.914428 -0.112755 38.763976
1.402887 -2.216318 39.927403
-0.017128 1.943434 40.720987
0.855391 2.254586 38.946423
-0.286913 0.634458 40.488694
0.077067 1.867932 40.995288
1.125765 0.262686 38.964655
0.628398 -1.429451 41.028328
2.430785 0.692056 41.084618
1.798899 -1.188014 40.472185
0.189456 0.123022 38.580945
2.366191 1.253161 41.252365
2.067854 -0.344157 40.403626
2.417074 0.189084 40.310481
2.359472 2.057515 39.621816
0.734290 2.107261 39.314646
0.759335 -1.178489 41.169949
2.353346 -0.237585 40.993891
0.512287 -1.874421 40.535999
0.767205 1.655743 41.741865
2.370534 2.103522 39.528705
2.617335 1.719970 39.125320
1.098545 -1.770210 39.619410
0.514844 0.352973 39.615278
1.935189 1.182956 39.104232
0.393697 2.054044 39.813028
1.211197 1.427923 39.099631
1.770945 0.390219 39.171909
2.016845 1.388304 39.092394
1.373371 -1.368616 39.974776
0.485033 0.492396 39.592759
2.732271 2.220271 39.486397
1.661164 -0.403076 39.184399
0.254782 -0.676672 40.388598
1.464122 1.562444 41.790013
-0.321093 0.836158 41.090357
-0.088045 1.689639 39.202814
-0.241331 1.830942 40.211046
1.906779 1.500278 39.289616
1.448617 -0.081230 39.510685
-0.264330 0.423260 40.882401
1.341940 0.578290 41.724523
2.539087 0.445436 40.455286
1.446927 -2.345289 40.181407
2.557144 0.964704 40.763738
-0.320339 0.999976 41.595242
2.539872 0.455112 40.192098
1.038979 -0.659644 40.043543
-0.252642 1.778122 41.214377
1.132272 0.527759 41.712855
1.817684 -1.346811 40.630075
0.856458 -2.060121 40.340268
0.417056 -1.321977 40.417997
1.852847 -0.918806 40.407016
1.711271 0.548141 39.375115
2.790755 1.990129 39.290351
0.215232 2.038174 39.900828
1.329820 1.807203 41.305005
1.577039 2.049425 39.654412
1.538212 2.349520 38.989014
1.191757 -2.243949 40.067234
2.627827 0.927753 40.127212
2.089283 -0.257169 40.697435
0.490250 2.078576 39.549381
1.331902 -0.384632 41.464191
0.259499 -0.248878 40.108864
1.257488 1.832438 39.142372
0.478932 0.002745 41.473492
1.108932 -0.094069 39.750433
2.682484 1.150879 39.844253
1.596915 1.966488 40.238245
1.041814 -2.432090 40.579022
2.436185 0.584963 41.531820
0.273174 -1.036296 40.492495
1.040877 -1.499696 39.613474
1.303532 0.304654 41.615697
1.754553 -0.457758 39.390959
2.356973 0.592019 41.745673
-0.265457 0.669399 41.156133
2.357007 0.526725 40.880654
-0.035481 1.038504 39.181461
1.401325 -0.550595 39.985038
-0.261337 1.147242 40.822153
0.823263 1.934163 40.489776
2.188830 1.900576 40.562364
0.230660 -0.819115 40.442441
2.742414 2.168422 39.336928
0.171584 -0.029570 39.248455
2.021757 0.422191 41.047499
-0.239093 1.497547 39.457276
0.415807 -0.883022 41.002307
2.493330 0.895236 41.798929
1.739226 0.069610 41.478389
1.905305 1.408257 41.881040
0.713001 -1.315982 41.112542
0.055469 0.596764 41.592590
0.029001 -0.112088 40.963936
0.389605 0.095847 39.532753
1.613314 -1.765578 40.550503
1.525323 1.069347 41.762572
2.365837 2.004953 41.115785
2.409834 1.768743 39.221820
1.410334 1.780437 39.212250
0.475865 2.070585 39.650811
-0.124310 -0.146272 40.877164
0.264773 -0.219889 39.744880
0.326308 -0.058723 41.261825
1.550538 0.697286 39.232902
2.764164 1.983926 39.559725
0.664623 -2.042304 40.656292
1.745347 0.000007 41.459566
0.500780 -0.160355 39.257812
-0.132535 -0.060672 40.957708
0.442588 -1.573598 40.680561
1.038461 1.855009 40.980668
2.313808 1.880513 40.702697
-0.223634 0.864469 39.662773
0.555074 -0.853681 40.184981
-0.055895 0.067622 40.491851
2.261189 0.438457 41.491707
0.902367 0.782343 41.714608
2.201915 2.032669 39.747937
0.169463 -0.427442 40.732759
0.296177 0.205442 40.299900
0.243451 2.110585 39.337685
2.072916 0.082346 40.451140
2.270132 0.554019 39.752076
2.319112 0.592285 41.793032
2.064437 0.024353 40.280605
0.690627 1.295579 41.706218
1.992119 1.231659 39.062547
1.988119 0.267457 41.062054
0.814429 -2.239483 39.799366
0.630149 0.518231 41.621181
2.233877 1.410429 39.054948
-0.294637 1.231626 40.499552
2.729828 1.886411 40.260942
0.477776 -0.405101 39.727775
1.134383 0.006114 39.243295
0.571147 -1.612527 40.183788
-0.324733 1.890122 40.540673
1.906921 0.354104 41.071796
1.688034 1.632798 39.402873
1.581849 -1.281272 41.119820
0.387250 2.058767 39.120610
2.670871 1.691476 40.612576
0.155645 1.282511 41.780574
1.108219 1.614412 39.293089
1.450334 0.000500 38.698302
2.717073 1.966971 39.012189
2.434497 0.471224 38.954445
0.934206 -0.991240 41.265225
0.140339 -0.214674 38.947751
1.487570 -1.736828 40.007074
0.201944 -0.180707 40.193606
1.868364 0.622464 39.162144
2.544062 0.451146 40.507139
1.590549 -1.909285 40.370932
0.696325 -0.344751 39.954837
1.075531 0.912018 39.177439
0.665219 1.182906 39.195394
1.984010 -0.855490 40.914899
0.327486 -1.062262 40.365113
1.101508 1.776914 41.542726
1.386711 -0.546219 39.989234
0.064225 0.703990 39.803481
1.410845 1.378939 39.104502
0.546412 0.314669 39.218974
1.100441 0.520196 39.257538
-0.042903 0.554737 39.881541
2.679993 1.332388 39.803955
0.815157 -1.572586 41.009443
-0.303556 1.409902 41.513064
1.883861 1.722811 39.053427
0.274842 2.076428 39.658201
-0.070597 -0.238867 40.876819
1.776706 2.280882 38.932696
0.410604 2.079225 39.579191
2.505373 1.434321 40.536737
0.649914 -0.058388 39.440778
1.462145 -1.961863 40.658871
2.036308 -0.664045 40.839967
1.745979 -0.275746 38.904759
0.137604 0.498333 41.205476
2.534957 2.049918 40.991672
1.112834 -2.232779 40.695761
2.357737 1.949570 40.555806
0.289222 1.576589 38.992425
0.092635 0.138991 40.425027
-0.414329 1.147432 41.458844
2.676630 1.652216 41.120717
2.648405 1.299755 39.582316
2.215852 0.817538 41.957475
0.219912 1.827941 41.242604
1.387043 -0.247111 41.515697
1.159939 1.787420 41.465274
0.480045 0.205455 41.489706
2.089100 1.211108 41.859250
0.610704 0.357527 39.249173
-0.275882 1.480702 41.359940
-0.103995 0.335391 39.143276
1.263766 1.092558 39.149226
0.454191 1.533913 41.725223
-0.243156 0.278880 40.779872
0.804990 -2.196750 39.764784
1.240149 0.395096 41.664365
2.742317 2.172078 39.375327
0.558728 1.715482 39.191400
0.077900 0.183978 40.974045
2.022128 1.738696 41.671998
1.366987 -0.223983 41.522046
2.673204 1.346534 40.110827
0.721744 1.726972 39.345178
0.377324 2.094049 39.155098
1.496833 -1.409457 40.371568
1.786799 0.323395 39.466593
1.546099 -2.117232 40.332777
1.745803 2.307263 38.934219
-0.128934 0.775369 39.226914
2.056616 0.041175 40.180504
0.869782 2.263036 39.087806
2.536818 0.792993 40.662654
2.181992 0.506930 39.824358
0.917171 -2.069517 40.383628
0.455499 -0.532089 40.961198
0.151537 -0.121900 40.321972
0.787649 -0.389499 41.413634
1.404883 -0.268594 38.716325
1.670552 0.318035 41.519246
0.562861 -1.488266 40.949302
1.566191 -2.011079 40.301686
1.591672 1.173276 39.140333
2.296607 0.451099 40.832144
0.829389 -0.211690 41.492168
0.340219 -1.310966 40.507010
1.332773 1.989711 38.884609
2.435700 1.650817 40.345487
2.101882 0.437842 41.698625
1.809094 1.893147 40.667397
1.419212 -2.014402 39.841985
0.176373 0.173739 38.595417
1.065400 1.201126 39.133048
0.239801 -0.178280 39.528704
0.450073 -0.309099 39.455592
2.027889 -0.374505 40.371997
2.422532 1.360559 39.114699
1.663727 -0.537258 39.960140
1.625490 2.161701 39.250433
0.321368 1.821052 39.107099
-0.275809 1.539843 39.610113
-0.166679 1.774325 39.387104
1.323196 2.109412 39.275977
-0.118102 1.686657 40.550592
1.643521 -0.425714 41.283433
0.663805 1.994376 40.118559
-0.089345 0.374677 38.820418
0.231921 1.496111 38.982148
1.587925 0.705325 41.727144
1.550782 -0.427012 39.874105
2.755522 1.803509 40.098316
1.795207 0.474474 39.290696
0.111116 0.186676 41.002474
2.173450 0.750256 38.779742
1.081941 -1.551819 39.595859
0.184353 0.410733 38.638170
0.389968 -1.471741 40.609248
1.345424 0.831146 41.745103
1.578761 -1.784911 40.271622
-0.050171 2.025693 39.393265
2.380010 -0.122544 41.045866
1.156131 -0.843910 41.311584
2.006486 0.692128 41.893668
0.612941 -0.238450 39.844318
1.908741 -0.185910 39.592943
1.546339 1.158435 39.136093
-0.212134 1.054240 39.434778
-0.142207 0.521930 39.226384
-0.265727 0.429537 40.878487
0.620963 -1.961115 40.667033
2.470939 0.816313 39.350106
2.680720 1.650665 41.026375
1.956205 -0.374126 38.945573
2.013041 -0.461899 38.888888
2.362760 2.014173 40.879203
-0.270132 1.351200 40.399800
2.193694 1.757553 39.274684
-0.181142 2.027646 40.495849
0.871035 0.716895 41.697491
2.432900 -0.034001 40.722178
-0.290078 0.724498 41.456872
0.515706 0.541149 41.592136
2.441823 0.453285 39.881905
1.208979 0.343728 39.292142
-0.409295 1.101829 41.257616
-0.215775 0.601922 41.204951
1.200695 -0.123258 41.550525
1.457987 2.354023 39.182121
1.990307 0.263114 40.109678
0.530067 -0.612395 41.162771
0.538320 -0.784337 40.184416
1.418295 0.683941 39.217488
2.273275 1.576926 39.195392
1.905957 -0.385213 39.460477
2.310288 1.268335 41.875680
1.847936 1.972003 38.886054
1.558812 -0.647169 40.082419
0.343045 0.325257 40.084771
1.934891 0.136527 39.766780
2.347928 0.352645 41.004436
1.566738 1.808814 41.298935
1.979322 0.037909 39.879747
0.218684 0.107240 40.380712
1.728460 1.975274 40.179096
0.749623 -1.893973 40.800663
1.006326 1.647272 39.136843
0.518110 0.466007 39.471407
1.177396 2.096848 39.371828
-0.102841 0.870222 38.968517
0.380663 0.399029 39.937515
2.339771 0.215439 40.228331
-0.126226 0.685509 39.392651
2.583290 0.837307 39.574020
0.857854 0.086670 38.708105
0.171021 1.219144 38.983069
-0.290010 1.347734 40.214396
0.922976 -2.242414 40.685013
0.165561 0.296650 38.620143
2.540490 0.524464 40.007764
0.656724 1.828386 41.220807
1.333740 0.796861 39.195191
1.221813 0.892472 39.175990
1.640470 -1.645671 40.695638
0.778405 0.395182 41.575935
2.073574 1.714885 39.387213
1.137581 -2.104091 40.758445
1.274588 -1.757006 40.928837
1.055118 -1.419288 39.633376
1.886757 0.551898 39.683396
0.808011 -1.516043 39.729993
1.626486 1.516742 39.174457
-0.256628 0.947049 40.585214
1.693091 1.533115 39.305164
2.741749 2.003973 39.893920
0.029130 0.163602 39.174954
2.413235 -0.031440 40.886677
-0.231960 1.544666 40.435264
1.024275 0.971722 41.744120
2.298745 1.922371 40.446058
2.152156 -0.196240 39.126971
1.518933 -0.888112 41.254612
0.171202 -0.377651 40.393690
1.588906 -1.921266 40.363468
2.222680 0.771369 38.846423
-0.240448 1.068853 39.478205
1.021223 1.976720 40.200558
2.176456 0.423963 41.535096
0.291282 -0.066786 38.673510
0.842927 -0.914062 41.263602
1.980274 -0.325225 40.890810
0.266690 0.008250 41.019981
-0.250619 1.236862 40.829398
0.689098 0.343486 38.948451
0.699799 -2.158863 40.618359
2.056684 0.322580 40.140785
1.615065 -0.139473 41.512312
2.767890 2.076364 39.390814
0.720262 -2.373709 40.178086
0.969299 -0.259821 40.018677
1.199392 1.912993 40.591307
1.643253 -0.320119 39.195717
2.014393 -0.876091 40.834671
1.227876 -1.431627 41.123929
1.247672 2.033357 39.749592
0.242143 -0.017832 39.939017
0.868687 0.836535 39.190736
0.247910 0.186020 40.121844
1.650427 0.220275 38.904393
1.841251 -0.940477 41.035017
1.809199 0.283364 41.367740
0.267136 -0.360461 39.519263
0.892204 -1.099959 41.222786
2.655705 1.214235 39.493158
1.562508 1.870773 40.849556
-0.093262 0.748897 39.547242
0.228427 0.023610 39.238462
1.724358 -1.310494 40.429627
1.073910 1.306463 39.123633
-0.369053 1.303707 41.537318
1.058538 -1.964247 39.617710
0.663551 0.561744 39.277527
1.844294 -0.227033 40.848863
1.049323 -0.094072 41.547955
0.775697 2.245516 39.008265
1.266379 1.886666 40.726892
2.216123 1.893692 40.617599
2.387339 2.105333 40.301786
1.688396 -0.984759 40.293838
1.616604 -0.733491 40.186545
0.667768 -0.725153 41.257338
0.488034 -1.591070 40.449193
1.942535 1.596609 39.257528
0.648082 -1.550408 40.050786
2.143979 1.915087 40.470330
2.203740 1.714769 41.795909
2.428947 1.134495 41.049871
2.500138 2.203698 39.988984
2.722952 1.881920 39.205931
2.193378 1.914980 40.467561
0.264062 1.497998 38.983361
1.442693 -0.169383 39.009821
2.622869 1.111473 39.461952
0.226232 -0.152279 40.745405
0.531057 -1.133316 41.077258
2.778279 1.880183 39.765497
0.492495 0.340120 39.598408
0.451841 1.816776 41.334296
0.888601 0.563846 41.680068
2.524270 2.155239 40.289807
2.343596 1.151888 41.915243
-0.305098 1.693588 39.903419
1.047728 0.699352 39.217027
1.359217 0.676340 41.732829
1.795853 0.583412 39.366503
1.527694 1.825531 41.216828
0.742319 -2.075259 40.692420
2.493985 2.182840 40.123607
2.450495 2.315915 39.180354
0.270935 0.005434 39.870334
-0.320747 1.930053 40.442267
2.630874 0.910547 39.929314
2.423971 1.135338 39.081719
0.952767 -0.060620 38.684935
0.113802 -0.227476 38.891763
1.595457 -0.466785 39.820645
0.694396 -1.819030 40.813356
2.361307 0.442165 38.750358
0.707809 1.776558 41.590483
1.041763 -1.870985 40.885308
1.148630 -2.396629 40.580214
1.564334 -0.205008 41.504504
1.858135 -0.356639 39.844464
0.681379 1.793075 41.468357
1.877130 0.252402 41.253341
1.012250 2.052133 39.633913
1.470845 2.274734 39.257649
-0.243466 2.007029 39.724289
-0.156224 0.140661 41.005090
0.764994 2.208523 39.195694
1.921643 0.377788 39.866430
0.314672 -0.824116 40.315999
2.591361 2.210512 39.890491
1.534568 -1.153083 40.250081
0.220087 1.185123 38.977620
2.539977 0.523133 40.175859
1.318588 -1.607854 41.006884
2.391620 0.614461 38.942021
2.206365 0.394751 39.614370
0.587055 -1.841716 39.977238
0.440816 -0.395889 40.786522
1.775852 -0.655117 40.346151
2.006055 -0.467166 38.859356
0.292525 2.039455 39.170246
0.177226 0.498357 41.244150
2.501129 1.808236 41.637229
2.368824 0.529144 39.717488
1.481801 0.555377 39.247321
-0.223031 1.476286 39.376046
0.851700 -1.693781 39.682206
1.376425 1.839651 41.085880
2.144395 1.228429 39.003472
2.546233 0.945010 39.343368
1.175736 -0.070382 39.677210
0.304097 0.323234 40.198615
2.170236 0.575107 41.835637
1.441053 -2.328475 40.101186
-0.180380 1.041945 39.314472
1.638873 0.445889 39.344369
-0.297661 1.319043 39.654925
-0.009970 0.035202 40.990462
2.545406 1.032069 41.753756
0.426041 2.034454 39.945133
0.622256 -0.155288 39.750860
-0.105146 1.617115 39.192948
0.040135 -0.273442 40.890951
-0.251694 0.690728 40.186380
0.534349 -0.116040 39.464795
1.718846 -0.418757 39.119834
0.886594 2.259432 38.923123
2.356885 2.157998 39.332872
2.137274 1.308390 41.782941
1.751338 -0.532080 40.894514
2.197644 0.452424 41.643327
-0.250453 0.355752 40.727663
2.242273 0.504510 39.896512
0.748584 -1.022261 41.211946
2.401353 0.633998 41.147214
-0.174514 0.999216 39.337368
0.800574 0.056970 38.688658
0.217620 1.331699 41.830352
0.106495 -0.209913 38.631014
-0.311121 1.006011 40.283852
0.689350 1.214386 39.174967
1.253913 -2.330377 40.581532
1.264786 -0.065783 38.996585
0.270043 -0.285039 39.270300
1.011946 -1.852089 40.896579
2.544487 1.422792 41.684521
1.557250 -0.131734 39.191274
0.281268 1.869389 40.962163
0.137308 1.881685 40.904912
-0.272008 1.319641 40.076215
1.579651 -0.190373 38.816129
-0.187445 1.640102 40.351571
2.096441 2.036498 39.735239
1.213045 -1.796129 40.920331
2.000076 -0.865687 40.885133
1.854035 0.376438 41.188082
1.239826 -0.259643 41.495014
0.853943 -1.423687 39.750285
1.282778 -1.268833 41.193741
0.849091 -1.967842 39.682667
0.672727 1.096325 41.706215
0.461206 1.938349 40.535217
0.604334 -1.506569 40.392846
2.005297 -0.946312 40.753784
0.242537 1.901044 39.179993
0.452577 -0.461936 40.855903
2.004086 2.071148 39.429382
2.673535 1.722553 39.674585
-0.142241 0.511114 39.218322
0.220526 0.583493 41.604316
2.419583 0.276497 39.260510
1.666650 1.792457 41.390085
0.446380 0.777602 38.975932
0.109354 0.572687 40.896179
2.581735 1.160565 41.690602
1.692486 -1.562238 40.545319
2.405654 2.177912 39.910364
1.056103 -0.220536 41.509496
0.157810 -0.242174 40.900721
1.230405 -2.351484 40.584222
0.485327 -0.419499 40.048638
2.024066 -0.459022 38.753531
1.633519 0.172080 38.864152
2.055474 -0.273671 39.151986
1.974265 -0.394982 40.346783
-0.313971 2.015177 40.116692
2.507654 0.746870 41.692128
2.430240 1.636551 40.643819
0.140642 2.060654 39.748635
-0.088351 1.931977 39.366111
1.508080 -0.367363 38.882419
0.532532 1.796940 41.449986
1.465587 2.074040 39.470754
1.565887 1.211745 41.744218
0.689045 1.690843 39.358938
0.627066 1.794331 41.493220
-0.348228 1.815353 40.796474
0.779038 -0.247570 38.689649
-0.332773 1.204245 41.157446
1.667779 0.837021 39.247764
0.263564 -0.106460 39.251372
0.826520 -2.123775 40.705145
1.959390 1.768651 38.977120
2.378361 0.460527 41.472949
1.009597 0.318600 39.303243
2.652572 1.742951 41.536273
-0.270205 1.966808 40.738405
2.386020 0.092495 39.086492
1.067287 0.002857 39.378785
0.724024 0.264014 38.808391
2.040607 -0.228371 41.109553
0.187766 -0.246534 40.825537
1.252724 -2.295758 39.820457
1.531164 2.250266 39.258605
1.051999 -2.137373 40.417341
1.623509 -0.847248 40.215953
2.558238 0.607586 40.707590
0.484003 -1.550697 40.447764
2.145569 -0.321613 40.803603
2.624838 2.017734 41.125097
2.520632 2.074419 40.835665
1.777679 0.594446 39.360612
0.377079 1.819354 41.276299
1.148042 2.285689 38.886207
0.902135 -0.021807 39.509719
1.489905 -1.463316 41.052985
1.548419 1.630131 41.813425
0.632381 0.106253 38.785372
-0.171823 1.352545 41.098693
0.496668 -0.484417 40.228787
1.591971 1.563972 39.202635
1.564832 1.882438 40.755663
2.647102 1.546365 40.201789
2.307388 0.490867 40.917759
2.597427 0.777200 39.847932
-0.241604 1.857619 41.157238
2.358658 1.039637 39.042969
1.740311 2.371868 39.037966
1.347122 1.921662 40.536331
0.195531 0.251112 38.618961
2.258665 2.333773 39.160695
0.405821 -1.490616 40.559462
-0.320977 1.941848 40.572808
0.524883 0.887854 39.201748
0.708367 -1.856401 39.777775
2.018681 -0.114441 39.279967
1.826113 -0.640129 40.961298
0.623239 -1.662589 40.872349
0.581189 1.975461 40.264930
1.932285 1.734971 41.706605
2.675918 1.993454 40.734393
0.129747 0.208221 41.013505
0.388682 -0.347025 39.194093
-0.324642 1.921421 40.465455
1.755951 1.241328 39.141066
1.319429 1.952042 40.349749
0.729495 2.005326 40.056589
0.303693 0.598464 41.601541
1.482086 1.865033 40.885722
1.966080 -0.293093 40.087313
2.666730 1.015937 39.839759
-0.234616 0.976409 39.854321
0.718907 1.082742 39.174737
2.304333 -0.108129 40.604492
-0.273867 1.515700 41.159162
2.672232 1.188233 39.699958
1.708455 1.956693 40.279761
1.039736 -0.874957 40.033338
2.005860 1.870700 40.822642
0.276414 0.084714 41.102449
0.615262 0.053348 41.531356
2.384371 0.737396 41.866067
-0.314938 1.980391 40.123672
2.153537 0.172682 40.922612
0.022329 0.921095 38.806139
0.314725 0.324619 40.167615
1.910564 -0.166557 39.504855
2.529822 1.525077 41.241075
1.909075 2.100443 39.292588
1.192811 1.788766 41.442600
0.254058 -0.106370 39.532414
2.133442 0.804116 41.936501
2.235999 0.069685 38.669974
1.059898 -0.769922 40.036132
0.014461 0.502325 41.392467
0.383163 0.290268 39.949807
-0.144383 1.252616 41.841403
0.593387 -1.730890 40.062911
1.499782 -0.301379 41.474115
-0.195138 1.471975 41.133227
1.270510 1.963227 38.926990
0.703902 1.768578 41.636519
0.722302 -0.474449 39.986190
1.683858 1.810885 41.266597
1.436616 -0.321688 39.950858
0.607552 1.680531 39.302368
1.663591 0.384365 41.582411
0.270258 1.028898 38.844090
2.598833 2.138359 38.953742
2.615429 1.051351 41.583701
0.732231 1.916582 40.631070
-0.361310 0.800941 41.421168
1.133322 -2.398335 40.583551
2.596829 0.990484 39.532113
-0.358292 0.761525 41.282640
1.624314 -0.675610 40.184947
0.451661 0.546220 41.574316
0.686968 1.710006 41.715608
0.012542 1.800987 41.371786
1.785003 0.487767 39.258489
2.133342 -0.403334 40.982298
1.673029 0.361517 41.491442
1.855629 -0.148252 39.837570
0.299982 0.628460 39.771177
2.667149 1.889718 41.212177
2.202794 0.022137 41.033665
0.752053 2.187448 38.941801
0.329833 0.411058 40.090422
2.696650 1.630246 39.711587
2.599329 1.118335 40.467949
2.623502 2.211535 39.851902
1.870395 -0.023818 39.545226
2.636488 0.958746 39.957834
1.520750 0.704123 41.737130
1.946530 0.398776 41.008922
0.199596 0.818747 41.765327
-0.061803 0.589426 39.454885
2.274812 0.333547 38.695435
1.223960 -1.224762 39.990667
1.465125 -1.041736 40.154460
0.631937 1.760434 39.247420
0.711333 -1.970354 39.783148
1.389778 0.301321 39.276842
1.610288 1.566154 41.798621
2.696495 2.031722 40.330200
1.706524 -0.119438 41.459306
2.325421 2.331402 39.098875
-0.224908 1.675269 40.789889
2.030298 0.389457 41.383544
0.216279 0.911555 41.804677
-0.345655 1.088571 41.116498
0.372427 1.089805 39.073593
0.192142 0.141547 40.399686
-0.229291 0.987975 39.519643
1.982108 2.006759 39.961499
0.203742 -0.942217 40.786785
2.500918 0.643354 39.648654
1.786788 0.492615 39.082564
0.265532 -0.198502 39.728557
0.822287 -2.233509 40.119442
2.544015 1.036280 41.756531
1.302568 -0.464008 41.430078
2.558616 1.705295 41.631154
-0.222582 1.845177 40.446708
-0.267825 1.804387 40.157133
1.007236 -2.178882 40.016383
0.775300 0.552344 39.251160
0.429780 -0.913307 41.022575
2.329343 1.829397 41.152984
2.326914 1.668554 39.353286
0.357630 -1.380888 40.551258
2.518975 1.274851 41.410775
2.681947 1.614380 41.490158
2.650057 1.062121 39.997251
0.307859 0.541323 41.461875
2.779480 1.875078 39.511605
0.921849 -0.907971 40.049344
2.087881 0.682729 41.927860
0.784316 -2.294563 39.866450
0.206901 0.506807 41.200234
0.976163 1.046572 41.758658
2.483855 0.582861 39.726333
1.545060 -1.287090 40.381676
1.329123 -1.503887 39.762933
-0.228557 1.239567 41.066051
1.839315 1.878902 40.839756
0.283841 0.327162 41.026537
2.012726 2.354276 39.106840
2.097801 1.738110 39.341791
2.546463 1.322903 41.521084
0.892886 -1.107663 40.067146
1.630290 -1.083224 40.298214
1.733641 0.321780 39.196670
1.731584 1.968038 40.220841
0.315226 2.104751 39.371413
1.295038 0.096646 38.772485
0.208735 0.347825 38.631848
2.246159 0.320940 39.543924
0.470635 0.792053 41.659076
2.051202 0.787671 38.956302
0.375976 0.439791 41.146970
0.786248 -1.008896 41.235247
2.349566 1.884165 41.640056
1.066149 0.314779 39.212985
1.346820 -1.434435 39.828866
0.199867 1.634792 41.766659
-0.074791 0.594461 39.830158
1.296216 0.583808 41.726691
2.519243 0.841908 40.853383
0.847418 -0.304426 41.451605
1.198892 -2.255218 40.334239
0.449528 -0.383619 40.136846
2.379038 1.332835 40.920629
1.471795 -1.350954 40.300255
1.330825 0.343052 39.298032
1.473250 2.069483 39.496948
2.272790 1.887460 39.022010
1.232238 1.282605 41.782606
2.179597 0.627144 41.843510
2.037810 -0.458215 38.879142
0.438374 -0.413498 39.710536
1.760545 1.035383 41.865370
1.152498 1.779972 39.237679
0.654142 0.749867 41.654458
0.096204 0.041970 39.209898
0.659103 0.541299 39.286249
1.988811 1.487958 39.189505
0.210567 1.294654 41.828817
0.327192 -0.954234 40.304666
0.153261 -0.102917 40.280922
2.404338 2.159272 39.997169
1.112731 2.104319 39.319051
0.346713 1.950863 40.452482
0.910412 0.496004 41.697942
0.770471 1.831255 39.028369
1.153586 -0.052105 39.618737
0.767335 -0.822759 41.260433
2.048129 1.749109 39.215071
1.569493 1.587065 39.154608
1.567956 -0.788380 40.158957
2.178841 1.775078 39.234399
1.040183 -0.309332 38.685915
0.722581 0.495543 39.274785
1.995238 1.217050 39.061185
0.521295 -0.641455 40.193294
1.892214 0.402866 39.542348
-0.123650 0.531897 38.944333
1.424277 -1.803004 39.850179
2.547792 1.540485 39.521968
0.446410 -0.311613 41.203411
0.038945 0.448473 40.853774
-0.206313 1.209907 40.975243
2.182824 0.484798 39.676608
0.139254 0.310809 40.231450
0.450452 -0.309520 39.450522
1.761041 1.883988 40.730758
1.016728 -0.557663 41.372286
2.598236 1.136630 40.507641
0.539393 -1.253195 40.391887
0.411027 0.553249 39.853000
1.036003 1.835470 39.029505
0.828757 -0.563496 41.354116
1.579019 -0.705855 40.136274
1.803518 2.033182 38.825356
1.185482 -2.392827 40.566088
1.029944 0.227807 38.896781
1.212684 -0.536823 41.400716
2.491629 2.195281 40.038419
-0.140374 0.781800 39.177926
1.251786 -1.301622 39.829781
-0.025185 0.184264 38.734335
2.378124 2.042075 40.938930
0.573037 -1.048262 40.226448
1.510141 -1.932677 40.019006
0.597035 -0.075450 39.412496
1.478969 -1.666286 39.989089
1.500163 -2.029019 40.549639
2.167832 0.802623 38.916726
0.332559 2.088563 39.495706
1.324695 -0.935029 40.057669
2.183977 2.334571 39.021803
-0.243898 0.979759 39.583214
0.046127 1.929114 40.661331
1.362045 -0.542198 39.995828
0.056607 0.961321 38.803796
1.525787 -0.603006 40.026136
2.661635 1.866793 39.037027
0.569063 -0.404185 39.843646
0.559928 0.014982 41.509538
1.499863 1.652111 41.801282
0.907322 0.805256 39.198081
0.965846 1.743942 41.716130
1.811187 0.457294 41.330203
-0.171357 1.763458 39.398130
0.689205 2.082477 39.470553
2.031424 -0.371372 40.944855
2.012183 -0.888185 40.696369
2.040981 -0.576863 40.828864
2.417715 2.123245 40.468200
1.245578 -0.162251 38.678816
-0.118233 2.106848 39.687167
0.855028 -0.133557 38.917494
1.796482 0.383564 41.308669
2.438827 0.683056 41.043677
-0.199944 1.647453 39.389882
0.516303 0.459848 39.537356
1.187052 2.154312 38.817539
0.027520 0.660748 39.658984
2.665517 1.237544 40.217815
0.904738 -0.033126 41.554730
0.341424 0.255967 39.731626
1.809611 -0.516666 40.891037
0.371542 1.839380 41.146949
2.066391 1.438427 39.098161
1.913710 0.753877 39.207724
2.642907 0.969002 39.743065
0.907951 -0.846995 41.292825
0.187710 0.592999 41.599169
1.882604 -0.406868 40.031594
2.582216 0.845510 41.284220
-0.306187 0.950810 41.603087
2.395674 1.563561 40.502899
-0.121328 2.020290 40.542927
2.219669 -0.105786 39.146881
1.583896 1.052956 41.739516
0.763426 0.343801 39.023042
1.114193 2.074230 39.477376
0.357297 0.106756 39.218180
0.759983 -0.896027 40.083360
0.902984 -0.261376 38.659270
2.508189 1.287694 40.759456
-0.302872 1.887392 40.420228
0.801426 2.213102 39.194686
0.443879 0.571610 39.686875
2.682800 1.867646 41.193601
0.684466 2.027796 39.934358
0.316174 0.317200 41.176280
1.175177 1.056524 41.781037
2.366026 2.075731 39.639018
1.463496 -1.512605 40.130781
2.241089 1.354003 41.115190
2.245947 2.085328 39.383015
2.345906 -0.264730 40.916198
1.116624 1.917633 40.535743
1.668477 -0.329157 41.330981
2.674713 1.989236 40.726679
-0.226382 1.823406 39.478917
0.586162 -0.869505 40.170317
2.649150 1.736176 40.016268
0.342760 -1.355577 40.564729
1.854131 0.210981 39.314951
2.569261 1.449341 39.469840
2.568892 0.723683 39.686616
1.220222 -1.817770 39.682325
1.430686 -0.341094 39.961380
0.439176 -0.615842 40.900278
0.737017 -2.393884 40.268920
-0.191679 1.856238 40.352238
1.458972 1.942227 40.374584
-0.095912 0.498746 39.976643
-0.169688 1.152501 41.839109
0.044867 0.305056 39.334930
1.273652 1.941542 40.422769
1.130061 2.183584 39.230699
0.097424 1.607414 41.800505
1.814839 0.461738 41.402560
0.842665 0.322003 39.287970
1.617903 -0.542385 41.259372
0.454134 0.129736 41.478657
0.170396 2.005097 39.225980
1.924403 0.637132 38.981054
-0.271750 1.056168 40.482241
-0.221713 1.540002 40.562882
2.509080 0.733504 40.653892
1.738157 -0.617463 40.950242
2.481444 0.836894 40.991175
0.703170 0.341248 38.941889
1.887035 1.149511 39.142514
2.214006 -0.107167 38.672755
1.767707 0.100449 41.452716
1.504052 -0.547799 40.001554
2.463162 0.539474 39.760392
1.911468 0.465470 39.799545
0.443094 0.287656 39.364251
-0.277699 1.251136 39.541444
1.365788 1.307456 39.125755
0.154214 1.675736 41.733345
1.173222 -1.349758 39.733780
2.225372 1.846187 40.935513
2.615094 1.681555 40.554744
2.410425 1.389407 40.785001
0.415437 1.520605 41.738412
0.384917 1.995298 40.169219
0.371887 -1.271255 40.895586
2.184949 0.468926 41.710645
2.714834 2.255890 39.390192
1.272269 1.763900 41.628159
1.358729 -0.185255 38.945883
1.607188 1.352539 41.742072
0.450227 0.789847 41.677629
0.241533 -0.180421 38.626946
0.114368 1.664012 39.054082
2.326787 1.921971 40.452227
-0.173628 1.667974 40.299091
1.090334 -1.969781 39.626038
-0.039979 1.271961 41.789583
1.728424 -0.517694 39.942834
-0.101482 0.886314 39.026608
2.023436 1.935134 40.389430
1.902987 1.803079 41.271913
1.254088 -1.037136 40.057728
2.377185 0.126813 38.868950
1.985280 1.697654 41.887217
2.260414 -0.386339 40.998272
1.847819 -0.193593 41.116416
1.732709 -0.443665 39.324009
0.535418 2.003263 40.110627
0.455831 0.601508 38.919530
2.452665 1.304897 40.845899
1.097326 -1.893612 39.636628
2.072244 -0.310869 39.099034
2.756406 2.094403 39.516700
2.602317 1.109244 41.359337
0.189918 -0.228320 39.184057
2.460266 0.749995 41.775681
0.284303 -0.028858 39.409446
0.534016 -0.148095 39.610608
0.829362 -0.256294 38.674072
-0.283761 0.579511 40.576776
1.811314 2.091565 39.350277
0.509495 0.385722 39.479821
2.333704 1.857245 41.187872
0.372690 0.399946 38.727199
2.233900 0.356869 40.109479
0.660324 2.109361 39.322338
1.413840 2.014826 39.886366
2.578613 0.785062 41.525275
-0.285960 1.340931 40.625467
0.133923 1.879240 40.921055
0.744290 -2.394802 40.272840
2.148124 0.792758 41.926416
0.069298 0.295713 40.325847
0.586253 2.203175 39.112483
1.856445 2.018465 39.852575
2.282973 -0.088103 39.087177
0.151045 -0.054410 40.247263
0.118896 -0.289348 40.535541
0.761049 -0.041637 41.542282
2.581708 0.949681 41.654525
0.859675 2.017604 39.950052
1.617642 -1.527728 40.410850
1.153902 -0.076768 39.699934
0.675829 -2.372975 40.295407
0.409066 0.332640 41.387613
0.248598 0.292954 40.228419
0.562513 -1.206423 41.089986
1.763358 1.785323 39.138831
1.464627 1.972642 40.185423
1.324214 -2.195919 39.820887
0.005678 0.002832 38.687200
0.770246 -0.555986 41.346381
2.446837 0.110047 40.839157
-0.425600 0.973992 41.288210
2.082352 -0.307824 39.060414
0.568150 -0.098417 39.233299
1.606989 1.943978 38.897835
0.482959 -0.165118 39.450600
0.185208 0.440507 39.534349
0.624580 -0.925337 40.158947
0.876987 0.134555 41.588430
1.110382 -2.114306 40.439678
0.905589 -1.596266 39.668935
1.751418 -0.115612 41.417381
1.240913 -2.342127 40.200090
0.930916 0.691126 39.217381
2.505549 0.701179 39.497786
2.502595 2.269360 39.002628
2.073153 0.512728 38.684195
2.510235 1.541037 41.718423
0.350520 -0.668237 40.330686
-0.133315 1.568054 40.753787
2.559346 0.715762 39.942656
1.301115 -1.310867 39.894662
1.081390 1.793964 39.234080
0.228448 0.174515 40.379321
-0.209594 1.981933 39.604648
2.103727 2.257725 38.958663
0.910716 0.202315 38.784559
1.738830 -0.057218 38.867353
1.001552 -0.512304 41.387941
2.372313 -0.188869 40.977122
-0.009978 1.057880 39.064567
1.737900 0.396364 39.515995
-0.107053 0.537195 38.866217
1.315547 -0.048555 39.528421
0.031339 0.650266 39.827065
2.101040 1.981465 40.110656
0.437131 -0.285004 41.224988
1.619530 1.847389 41.037137
2.557586 0.611030 39.953091
0.192445 1.296079 41.810215
-0.037775 -0.051909 39.130449
0.120405 1.999296 40.197406
1.117083 -1.879813 39.656385
0.341949 0.568374 41.069299
0.789033 -0.203573 38.689755
0.598735 -1.739302 40.796487
-0.409766 0.898493 41.376030
-0.134021 0.594811 38.953566
-0.017996 0.480313 40.031358
2.665686 1.182626 39.671337
0.351146 -0.682137 40.889655
2.439593 1.975881 38.895961
-0.042226 -0.076475 40.638515
0.513198 0.415462 39.088216
1.194509 1.078086 39.146866
1.626229 -0.903085 41.195293
0.384385 2.108116 39.313274
1.391536 1.845143 41.041759
0.857844 1.778144 41.558446
1.516875 0.189465 41.612601
2.420547 0.333830 39.200758
-0.275732 0.464989 40.721358
1.639396 2.358433 39.165314
-0.127485 0.771527 38.963724
2.036515 1.543351 39.205186
1.985042 0.390821 39.998395
1.223945 -2.049757 40.326858
0.404519 -0.169342 38.831203
-0.301923 0.763957 40.622198
1.391414 1.877151 40.768357
0.890127 -2.272136 40.373303
1.461216 -0.028757 41.584726
1.438219 1.896821 38.965750
1.100445 -0.147429 38.659404
2.363818 2.084364 39.529508
0.358872 -0.678253 40.313408
0.491350 -0.249463 39.227813
-0.233568 0.293102 40.943376
0.267473 -0.091799 40.879840
0.497664 -0.330516 39.179067
2.109253 -0.344817 40.581548
0.518669 -0.445966 41.218078
0.081233 1.191595 39.010902
1.225290 1.861271 40.912487
2.358916 1.575625 40.692705
1.340946 2.011295 39.887233
0.403299 1.325562 41.807490
1.226565 -0.086967 41.567517
0.725529 0.739524 41.660436
2.520340 2.285248 39.420351
0.528745 -0.928596 40.214089
0.531594 1.984527 40.218100
0.268707 1.668098 41.732192
-0.111487 0.846371 38.973437
1.014207 -1.850916 40.897577
0.164197 -0.734264 40.718083
1.870973 -0.452705 39.659512
0.697383 -0.293157 39.949720
1.936020 -0.585708 40.446211
0.122844 0.496744 41.228182
1.681885 -0.306462 39.369435
1.214611 2.350120 39.110928
0.660790 1.425514 39.172351
0.369374 -0.557423 40.843811
1.471572 1.092400 41.758165
-0.245843 1.471178 40.076680
0.746548 1.859839 40.959240
1.257431 1.884594 40.737114
1.226682 0.389100 41.656942
1.862539 -0.984513 41.028810
0.403663 -0.423762 39.763763
1.755323 1.878723 40.804002
1.627062 1.895972 40.645643
1.144262 0.602235 39.229841
0.459069 0.516690 38.948209
1.336167 -0.331232 40.005323
1.532965 1.854753 40.976405
0.568210 0.393513 39.444521
0.275427 0.104083 41.072690
0.358311 -0.374443 39.429952
2.752972 2.082257 39.034628
1.599366 1.702621 41.798105
2.495172 1.457464 40.515862
2.049524 0.416630 41.049905
0.064506 -0.303390 40.834540
0.715490 -1.672249 39.777979
1.436117 1.839631 39.007783
2.682874 1.724156 41.376558
0.475976 -0.252159 39.625414
-0.324388 0.802477 41.465478
1.277833 -2.103837 40.708433
1.984228 2.117215 38.891775
0.260465 0.639549 39.771623
2.644587 1.113997 40.059825
0.441954 -0.275842 41.243861
1.728508 2.369395 39.104353
1.896161 -1.207013 40.756642
2.562900 1.130826 41.732796
1.867156 1.717392 39.073724
1.781189 -0.776240 40.324238
2.434099 0.511686 39.467093
0.334572 -0.118783 41.203557
2.428915 1.151791 41.036345
0.634490 -1.599461 40.030012
0.146268 -0.269723 40.669591
0.411822 1.636797 41.705468
2.049626 0.402135 41.136790
1.570164 -1.635618 40.246786
0.005074 0.263696 40.323465
1.587904 2.072316 39.454155
1.062422 -0.943115 41.286729
0.176632 0.112078 39.179797
