-0.021927472203969955 -0.05097603797912598 -0.0565568208694458 -0.4896187484264374 -0.7375038862228394 0.4651467800140381
-0.0010615568608045578 0.025296835228800774 -0.06470467150211334 -0.07567226886749268 0.5168374180793762 -0.8527325391769409
0.036797430366277695 -0.02884613908827305 -0.05512186139822006 0.8044410347938538 -0.057398442178964615 -0.5912529230117798
0.04399474337697029 0.027512498199939728 -0.04121579974889755 0.9961037635803223 0.08761788159608841 0.010018972679972649
0.0027451226487755775 -0.02052980475127697 -0.03611461818218231 -0.030997466295957565 0.398504376411438 0.9166424870491028
0.012283550575375557 0.06684746593236923 -0.026299670338630676 -0.9427465796470642 0.29327958822250366 0.1587953269481659
0.017936566844582558 -0.0589374303817749 -0.046651050448417664 0.274796724319458 -0.7885349988937378 0.5501811504364014
-0.01623731106519699 -0.0208060871809721 -0.07938680052757263 -0.22396433353424072 0.4940313994884491 -0.8401029109954834
-0.03632302209734917 -0.017855847254395485 -0.037466730922460556 -0.8219226598739624 -0.3775739371776581 0.4264751970767975
0.0013872790150344372 0.007088248617947102 -0.06899993121623993 0.05179347097873688 0.33922696113586426 -0.9392776489257812
0.020540595054626465 0.08559634536504745 0.001399436965584755 0.4430869221687317 0.8566544055938721 0.2642294466495514
0.011397715657949448 -0.029374072328209877 -0.07989130914211273 0.6126742959022522 0.7688709497451782 -0.18294169008731842
0.03494040668010712 0.04356273636221886 -0.05362167954444885 -0.8935760855674744 0.20989972352981567 -0.39681723713874817
0.03865679353475571 0.02246103808283806 -0.04853276535868645 0.33201920986175537 -0.009132142178714275 -0.9432284235954285
-0.03290308266878128 0.006850649602711201 0.016598829999566078 -0.6829649209976196 -0.6771690249443054 0.2738630175590515
-0.031749553978443146 -0.02044098637998104 -0.02745641954243183 -0.5767807364463806 -0.577170729637146 0.5780985355377197
0.04163060709834099 0.061055973172187805 -0.014436488971114159 0.043639831244945526 -0.879603385925293 -0.4737018048763275
-0.015230941586196423 0.04503268003463745 -0.03081486001610756 -0.5623604655265808 0.8084140419960022 0.17383167147636414
0.01079217903316021 0.08148960024118423 -0.008027274161577225 -0.8231092691421509 0.4561539590358734 -0.3382524251937866
0.04993841052055359 0.07325246930122375 -0.016954150050878525 0.5982722640037537 0.8010971546173096 -0.017708858475089073
0.06534664332866669 0.03328332304954529 -0.024239864200353622 0.6963827013969421 -0.32803574204444885 0.6383131146430969
-0.026392541825771332 0.025594551116228104 0.035178251564502716 -0.9277105331420898 -0.04253406450152397 0.3708692789077759
0.02792564406991005 0.07421167939901352 -0.011393757537007332 0.9356822967529297 -0.33799314498901367 0.10128816962242126
0.015578479506075382 -0.03837232291698456 -0.03231595829129219 0.06529171764850616 -0.26103371381759644 0.9631190896034241
0.024521488696336746 -0.036650650203228 -0.072405606508255 0.7481973171234131 -0.05149289593100548 -0.6614750623703003
-0.026986580342054367 0.010587907396256924 -0.04632226377725601 -0.7722132802009583 0.584377110004425 -0.2493792623281479
0.039548709988594055 0.06225038319826126 -0.04558520019054413 -0.7495861053466797 0.46279123425483704 -0.47322818636894226
-0.01997194066643715 0.007506278343498707 0.025728972628712654 0.8127528429031372 -0.46071723103523254 0.35661250352859497
-0.010628045536577702 0.0251151155680418 0.026424283161759377 0.7732312679290771 0.44069042801856995 0.45596635341644287
0.0016567474231123924 -0.01748567633330822 -0.03731316328048706 0.4218842089176178 0.0607716403901577 0.9046106934547424
-0.008693882264196873 0.006689137779176235 -0.02667011320590973 0.8927839994430542 0.03365062177181244 0.4492267966270447
0.048847123980522156 0.062166839838027954 -0.0451325997710228 0.3939788341522217 0.7932999134063721 -0.46417236328125
0.037849538028240204 0.06923624873161316 -0.021341117098927498 -0.8595190048217773 0.50108802318573 -0.10068698227405548
0.0220826156437397 0.07116004079580307 0.0012058448046445847 0.7303842306137085 -0.6817882657051086 -0.04127507656812668
-0.0030640754848718643 -0.019289473071694374 -0.03218229487538338 0.814929723739624 -0.049113526940345764 0.5774750709533691
-0.03651951253414154 0.008131776005029678 -0.025580773130059242 -0.8534328937530518 0.5182345509529114 0.055544931441545486
0.02332904562354088 -0.043637290596961975 -0.08388421684503555 0.7650538682937622 0.6432545185089111 0.030269304290413857
-0.030386030673980713 -0.005152322351932526 -0.009306095540523529 -0.11521759629249573 -0.7959697246551514 0.5942702293395996
0.03280995041131973 0.0450117290019989 -0.04742909222841263 -0.5571844577789307 0.7174301147460938 -0.4181381165981293
0.050226643681526184 0.06883899122476578 -0.028632406145334244 0.7618507146835327 0.5918722748756409 -0.26319319009780884
0.057697903364896774 0.02529597282409668 -0.051288142800331116 -0.4881154000759125 -0.030277380719780922 -0.8722537755966187
-0.007834729738533497 -0.04014689475297928 -0.038693975657224655 -0.29403480887413025 -0.8111655116081238 0.5055235624313354
-0.032039858400821686 -0.004820959642529488 -0.055273935198783875 -0.8093459010124207 0.3854507803916931 -0.44315558671951294
-0.020043212920427322 0.03869017958641052 -0.010608725249767303 -0.9945253133773804 -0.08473781496286392 -0.06114637851715088
-0.03436973690986633 -0.012399351224303246 -0.022385617718100548 -0.7213713526725769 -0.47183385491371155 0.506947934627533
0.04185064509510994 0.02921287715435028 -0.04671064019203186 0.8820909261703491 -0.21939963102340698 -0.41686853766441345
-0.030491579324007034 0.021134240552783012 0.0339740589261055 -0.4690489172935486 0.45793354511260986 0.7551754713058472
0.00018999818712472916 0.034836165606975555 -0.013271903619170189 0.9553980231285095 -0.29488104581832886 0.016119370236992836
-0.005536546930670738 0.027836158871650696 -0.0622149333357811 -0.3128981292247772 0.1408071219921112 -0.9392912983894348
0.002471087034791708 0.034582942724227905 -0.026340138167142868 0.677152156829834 -0.0026286025531589985 0.7358382940292358
0.044281747192144394 -0.015494165942072868 -0.029774615541100502 0.7127946019172668 -0.13474416732788086 0.6883079409599304
0.008300128392875195 -0.003943134099245071 -0.07190170139074326 0.5291916728019714 0.17852549254894257 -0.8295087814331055
-0.01052075158804655 0.027197740972042084 0.00020587071776390076 0.39176657795906067 0.4121159315109253 0.8226052522659302
-0.016850020736455917 0.010174691677093506 -0.019230661913752556 0.3757239878177643 0.5615150928497314 0.7372463941574097
-0.01805858314037323 0.043132342398166656 -0.0020857807248830795 -0.5950542688369751 0.7660001516342163 0.24321620166301727
-0.01345061045140028 -0.03977256268262863 -0.037819959223270416 -0.0948326587677002 -0.6049327850341797 0.7906093001365662
0.023139091208577156 0.03457871824502945 -0.032300323247909546 0.4017426669597626 0.2692760229110718 0.8752675652503967
0.0010075452737510204 0.037210285663604736 -0.017114270478487015 0.9907474517822266 -0.10156819224357605 -0.09001954644918442
-0.007857945747673512 0.027902573347091675 0.011401573196053505 0.8881447315216064 -0.45891958475112915 0.024326268583536148
0.022857431322336197 -0.04022538661956787 -0.07556749880313873 0.8502711057662964 0.4999460279941559 -0.16459967195987701
0.05621761456131935 0.0051620109006762505 -0.04430572688579559 0.2908119559288025 -0.5697646737098694 -0.7686329483985901
-0.020399324595928192 0.03898739069700241 -0.02700907364487648 -0.9974454045295715 -0.04313107579946518 0.056941717863082886
0.02439090609550476 0.08174339681863785 -0.006919212639331818 0.8394908905029297 0.5432511568069458 0.011541693471372128
0.00874475110322237 -0.00934085063636303 -0.03994246572256088 -0.30845552682876587 0.27902331948280334 0.9093960523605347
0.05671713128685951 0.04410664364695549 -0.029296105727553368 -0.21198910474777222 0.9768949747085571 0.027143681421875954
0.014370404183864594 0.07527375221252441 0.020190509036183357 0.3497453033924103 0.17729246616363525 0.9199160933494568
0.005832664668560028 0.07830114662647247 0.02090214006602764 -0.26345282793045044 0.847642183303833 -0.4605381190776825
-0.00493979174643755 0.026166260242462158 -0.062247999012470245 -0.6380983591079712 0.27039453387260437 -0.7209141850471497
0.04423639923334122 0.05646909773349762 -0.0480533093214035 0.29121077060699463 0.015398121438920498 -0.9565349817276001
0.008297879248857498 0.045641299337148666 -0.03338164463639259 -0.568958044052124 0.17121729254722595 0.8043453097343445
-0.02014783024787903 0.04396728426218033 -0.005090011283755302 -0.8485478162765503 0.47317737340927124 -0.23679061233997345
0.012462901882827282 -0.010076457634568214 -0.03716190531849861 -0.5265100002288818 0.12123160809278488 0.8414809107780457
0.030325856059789658 -0.03667108714580536 -0.05892406031489372 0.7736034393310547 -0.30510061979293823 -0.5553839802742004
0.003318031318485737 0.0340191125869751 -0.02726104110479355 0.4967530369758606 -0.09948606789112091 0.8621710538864136
0.022214308381080627 0.013737796805799007 -0.060586947947740555 0.45084381103515625 0.1400826871395111 -0.8815422058105469
0.050314728170633316 0.051555030047893524 -0.04801425337791443 0.51624596118927 0.04190758988261223 -0.8554144501686096
0.04528801143169403 0.02203597128391266 -0.04067879542708397 0.6632781624794006 0.7482004761695862 0.016070058569312096
0.014346200972795486 -0.021841606125235558 -0.03227134421467781 -0.34865617752075195 0.19324392080307007 0.9171126484870911
-0.003545621410012245 0.0456799678504467 -0.028163958340883255 -0.06537273526191711 0.8724470734596252 0.4843165874481201
0.011154793202877045 -0.033339425921440125 -0.08947867155075073 0.5115855932235718 0.6852236390113831 -0.5184098482131958
0.023149900138378143 0.006980014964938164 -0.032829225063323975 -0.43641582131385803 0.04077630117535591 0.8988206386566162
-0.019601035863161087 -0.0005896259099245071 0.0008240547031164169 0.86415696144104 -0.4957132637500763 -0.08660878241062164
0.012458276934921741 0.0700085461139679 -0.02449488267302513 -0.9974865913391113 -0.0044984593987464905 -0.07071235775947571
0.03569917753338814 -0.03117804042994976 -0.03515800088644028 0.47474420070648193 -0.7271507382392883 0.495852530002594
0.030519064515829086 0.07518383115530014 -0.017591629177331924 0.9855496287345886 0.1393127590417862 0.09635262191295624
-0.017870448529720306 0.0010163914412260056 -0.01130213588476181 0.9351836442947388 -0.27607953548431396 0.2218370884656906
0.015357837080955505 0.07994743436574936 0.016144799068570137 0.34695571660995483 0.8980996608734131 0.27025672793388367
0.044997550547122955 0.07243921607732773 -0.005147790536284447 0.4819595515727997 0.8705431818962097 0.09934540092945099
0.003661227412521839 0.04417762905359268 -0.04165046662092209 -0.18871252238750458 0.9561623930931091 -0.22392208874225616
0.020448919385671616 0.06715568155050278 -0.04070092365145683 -0.2016158550977707 0.6653371453285217 -0.718802809715271
-0.0185658261179924 0.021561043336987495 -0.026506727561354637 -0.03292044624686241 0.6393544673919678 0.7682070732116699
-0.03703238070011139 -0.010540364310145378 -0.04872759059071541 -0.9084994196891785 0.0032354865688830614 -0.4178735911846161
0.026855550706386566 0.01753804087638855 -0.05883796885609627 0.4979144334793091 0.10738517343997955 -0.8605519533157349
-0.020926300436258316 -0.018424684181809425 -0.019178863614797592 0.00508135138079524 0.11031316965818405 0.9938839077949524
-0.03499361872673035 -0.008931223303079605 -0.05322890728712082 -0.9048351049423218 0.3807877004146576 -0.19045783579349518
0.018022604286670685 0.05547642707824707 -0.025116998702287674 -0.2619347870349884 -0.667661726474762 0.6968629360198975
-0.014299255795776844 0.04661399871110916 -0.023952379822731018 -0.17866380512714386 0.9831865429878235 0.03772856295108795
0.021224871277809143 0.0829291045665741 -0.01540236733853817 -0.1630994826555252 0.6304619312286377 -0.7588914632797241
0.008128883317112923 -0.004780476912856102 -0.07219944149255753 0.5805693864822388 -0.01771468110382557 -0.8140180706977844
-0.019953884184360504 -0.029532330110669136 -0.02531122788786888 -0.16192105412483215 -0.5476482510566711 0.8208915591239929
0.049182794988155365 0.008977748453617096 -0.048615045845508575 -0.011818823404610157 -0.14297020435333252 -0.9896564483642578
0.005664417520165443 -0.013420799747109413 -0.039206378161907196 -0.23979248106479645 0.30957865715026855 0.9201416373252869
0.04325775429606438 0.04651693254709244 -0.03308980166912079 0.1630142480134964 -0.23722800612449646 0.9576790928840637
-0.008266978897154331 -0.0057376958429813385 -0.02463166043162346 0.8927839994430542 0.03365062177181244 0.4492267966270447
0.02310900390148163 0.06967446953058243 -0.010877208784222603 0.3924338221549988 -0.831455409526825 0.3932907283306122
0.037110183387994766 0.06476849317550659 -0.015774305909872055 -0.7570691704750061 -0.6188536882400513 -0.20944297313690186
0.026964697986841202 0.05484484136104584 -0.0325126089155674 0.8191671371459961 -0.2924578785896301 0.4933898448944092
0.03798793628811836 0.06818150728940964 -0.0213182270526886 -0.9440404176712036 0.3288651704788208 -0.02520577795803547
0.028647519648075104 0.056809328496456146 -0.037887539714574814 0.9628614783287048 -0.006594264414161444 -0.269915372133255
0.0001641158014535904 -0.04912496358156204 -0.03956014662981033 -0.48839354515075684 -0.5559802651405334 0.6725754141807556
-0.03261750563979149 -0.02891530655324459 -0.03563622012734413 -0.6492207646369934 -0.6764513850212097 0.34774401783943176
0.04196910560131073 0.06984390318393707 -0.03422520309686661 -0.2702506184577942 0.8982447385787964 -0.346584677696228
0.03630400076508522 -0.035808272659778595 -0.044674307107925415 0.8537540435791016 -0.5135984420776367 -0.08556090295314789
0.028002526611089706 -0.048144057393074036 -0.059242840856313705 0.8482540249824524 -0.5042209625244141 -0.16194544732570648
0.04438003525137901 0.04936990886926651 -0.05073568969964981 0.4522457420825958 -0.08422178030014038 -0.8879079222679138
-0.020215783268213272 0.03984042629599571 -0.014110498130321503 -0.9987032413482666 -0.04857505485415459 0.015240100212395191
0.019000109285116196 0.07001286000013351 -0.0018769707530736923 0.28697431087493896 -0.9167911410331726 0.27774035930633545
0.03150950372219086 -0.037871427834033966 -0.05548601597547531 0.8020541071891785 -0.5226289629936218 -0.2890816628932953
0.03490722179412842 -0.0008776821196079254 -0.026924092322587967 -0.4053325355052948 0.10042516142129898 0.9086365103721619
0.03494620323181152 -0.0014911573380231857 -0.02800740674138069 -0.8495986461639404 -0.047639649361371994 0.525273859500885
-0.028150193393230438 0.024596404284238815 0.030335145071148872 -0.20234465599060059 0.8603641390800476 0.46779292821884155
-0.021317027509212494 0.0055551677942276 0.02026420645415783 0.3337513506412506 -0.8106609582901001 0.48108094930648804
0.016598716378211975 -0.014533447101712227 -0.07090959697961807 0.3576147258281708 0.2655426263809204 -0.8953205347061157
0.01299672294408083 -0.016467658802866936 -0.07380961626768112 0.7819076776504517 -0.005287554115056992 -0.6233718395233154
0.027268968522548676 -0.05381552129983902 -0.06493836641311646 0.8666514754295349 -0.49089324474334717 0.08910123258829117
-0.006540742702782154 0.01847023516893387 -0.06641130149364471 -0.33906289935112 0.4691753387451172 -0.8154206275939941
0.05300101265311241 0.032941367477178574 -0.017851324751973152 -0.22548237442970276 -0.8266814947128296 0.5155146718025208
0.03724270313978195 0.05865015089511871 -0.032112084329128265 -0.8957407474517822 -0.4323206841945648 0.1036694124341011
-0.018015090376138687 0.02249223366379738 -0.05499441176652908 -0.7375645637512207 0.4990328550338745 -0.454933762550354
0.004571026656776667 0.043592050671577454 -0.04647219181060791 -0.11279203742742538 0.9415246248245239 -0.3175048530101776
-0.01800687238574028 0.02973753772675991 -0.031859368085861206 -0.8169617056846619 -0.333217591047287 0.4706798195838928
0.026203054934740067 0.012762158177793026 -0.030057378113269806 -0.4962496757507324 -0.16229097545146942 0.8528762459754944
-0.006714272312819958 0.0018327739089727402 -0.06970566511154175 -0.18701697885990143 0.3659464716911316 -0.9116511344909668
-0.008827962912619114 0.022280799224972725 -0.030017254874110222 -0.04641978442668915 -0.6683045625686646 0.742438018321991
-0.027430791407823563 -0.032982565462589264 -0.03494482859969139 -0.5223340392112732 -0.5945321917533875 0.6113088726997375
0.025320637971162796 0.06465009599924088 -0.018667884171009064 0.8037830591201782 -0.5835862755775452 -0.11558488756418228
0.0538536012172699 0.04234451800584793 -0.023850366473197937 -0.270956814289093 0.9496968388557434 -0.15702976286411285
-0.018813326954841614 0.0024498160928487778 -0.01214054599404335 0.7691763639450073 0.324004203081131 0.5508075952529907
0.024836983531713486 -0.04419811815023422 -0.07634268701076508 0.9051756858825684 0.4246266484260559 0.018686076626181602
0.026824098080396652 -0.04467226564884186 -0.0799303650856018 0.8239940404891968 0.5409494042396545 -0.16854539513587952
0.003209726419299841 -0.02915901131927967 -0.08804139494895935 0.0958605408668518 0.49048811197280884 -0.8661594390869141
-0.0235002264380455 -0.03434564173221588 -0.03413648530840874 -0.5295084714889526 -0.27007630467414856 0.8041638731956482
0.022784505039453506 -0.040600888431072235 -0.08238793909549713 0.8173523545265198 0.5751112699508667 0.034382689744234085
0.02269243262708187 0.01126058679074049 -0.062081389129161835 0.4158896803855896 -0.03138184919953346 -0.908873438835144
-0.030544299632310867 0.011524424888193607 -0.03291444107890129 -0.8405659198760986 0.2919180393218994 -0.4563252925872803
0.02474280074238777 0.05714636296033859 -0.0289593692868948 0.8980392813682556 -0.39264538884162903 0.19838103652000427
0.02526971325278282 0.00892227329313755 -0.03248203545808792 -0.3724190890789032 -0.17502109706401825 0.9114118814468384
-0.011273029260337353 0.03673642873764038 0.013288868591189384 0.4110149145126343 0.7240986227989197 0.5538483262062073
0.00546870194375515 0.002538396045565605 -0.039450548589229584 0.04614303261041641 -0.3019863963127136 0.95219486951828
-0.04033093899488449 -0.004206215962767601 -0.0245730709284544 -0.9703587889671326 -0.21141789853572845 -0.11707386374473572
-0.02797209471464157 -0.018390411511063576 -0.07236498594284058 -0.6204935312271118 0.4424983263015747 -0.647443413734436
0.05257846415042877 0.06644172221422195 -0.01627189666032791 0.9698297381401062 -0.1886112242937088 0.15445426106452942
-0.021219715476036072 0.0006706640124320984 -0.0038990527391433716 0.7092090249061584 -0.6738196611404419 0.20733940601348877
0.03955424576997757 0.05884335935115814 -0.023422278463840485 -0.6900474429130554 -0.6727460026741028 0.2669215798377991
0.016992859542369843 0.07276663929224014 0.01970909722149372 0.7056493759155273 -0.1627938598394394 0.6896064877510071
0.051672134548425674 0.06706804782152176 -0.029437094926834106 0.8522945046424866 0.5226355791091919 0.021121880039572716
0.034483652561903 0.06905101239681244 -0.006826212629675865 -0.7550368905067444 0.6102281808853149 -0.239876851439476
-0.018271517008543015 -0.027582617476582527 -0.024961333721876144 0.5548799633979797 -0.5370512008666992 0.6353614926338196
0.027219559997320175 -0.03318525105714798 -0.033314064145088196 0.21471092104911804 -0.04305971413850784 0.9757279753684998
0.03761858120560646 -0.002665366977453232 -0.05266531556844711 0.2844217121601105 0.2827911972999573 -0.9160422682762146
0.041534725576639175 -0.019304027780890465 -0.050872109830379486 0.8424291610717773 0.4895167648792267 -0.225136399269104
-0.026213377714157104 -0.00365607813000679 -0.0636584460735321 -0.7985040545463562 0.38877952098846436 -0.4596104025840759
-0.02136223390698433 0.0367412269115448 -0.006579244509339333 -0.9932796359062195 -0.0981188639998436 0.06138596683740616
0.020547300577163696 -0.06144248694181442 -0.06417607516050339 0.8762661218643188 -0.4107967019081116 0.2518010139465332
-0.03318922221660614 0.015364792197942734 -0.004934726282954216 -0.6386793255805969 0.7652153968811035 -0.08083401620388031
0.05404771491885185 -0.007381172850728035 -0.03315816447138786 0.7608696818351746 -0.4590616226196289 0.4586281478404999
0.022566508501768112 0.062077172100543976 -0.019031332805752754 0.19892996549606323 -0.4598533511161804 0.8654257655143738
0.01241366844624281 0.07701124250888824 -0.024502409622073174 -0.8167935013771057 0.5726388692855835 -0.07023613154888153
0.03614376112818718 0.06696706265211105 -0.01361066848039627 -0.9111234545707703 -0.31353139877319336 -0.26749229431152344
-0.016565684229135513 0.025480203330516815 0.0027715247124433517 -0.19684982299804688 -0.743134081363678 -0.6395325660705566
-0.025000236928462982 -0.0010593533515930176 -0.06226959079504013 -0.706039547920227 0.4409884214401245 -0.5541095733642578
-0.0204671248793602 -0.04201584309339523 -0.03887243941426277 -0.06747210770845413 -0.8851165771484375 0.4604521691799164
0.018099939450621605 -0.056758083403110504 -0.04351393133401871 0.2599733769893646 -0.774358332157135 0.5768734812736511
-0.03408315032720566 0.019708683714270592 0.010633697733283043 -0.7176804542541504 0.6390597820281982 -0.276653915643692
0.07047475129365921 0.03201370686292648 -0.030475348234176636 0.7933439016342163 -0.2808960974216461 0.5400952100753784
-0.015166657976806164 0.04059396684169769 -0.05348176509141922 0.5255533456802368 0.6011434197425842 -0.6020135283470154
-0.0065502142533659935 -0.016327304765582085 -0.02649558335542679 0.7809886336326599 -0.11878789961338043 0.6131445169448853
-0.0186515711247921 0.00021865591406822205 -0.005371131002902985 0.6953659057617188 -0.5946258306503296 0.40359193086624146
-0.012615864165127277 -0.024452051147818565 -0.08094163239002228 -0.22396433353424072 0.4940313994884491 -0.8401029109954834
-0.012291069142520428 -0.014268342405557632 -0.07633310556411743 -0.22396433353424072 0.4940313994884491 -0.8401029109954834
0.041318487375974655 0.0711270123720169 -0.03208604454994202 -0.6775671243667603 0.5538427233695984 -0.48390185832977295
0.014458469115197659 0.052371203899383545 -0.04678225889801979 -0.32698363065719604 0.6145787835121155 -0.7178959250450134
0.009002365171909332 0.05741213262081146 -0.031013548374176025 -0.9930816888809204 0.09544754028320312 -0.06839936971664429
-0.01113384310156107 -0.03208228200674057 -0.03050258196890354 0.18201296031475067 -0.743947446346283 0.6429724097251892
0.034622758626937866 0.03729473054409027 -0.03357279673218727 -0.22833779454231262 -0.04467536881566048 0.9725564122200012
-0.035838812589645386 0.011005569249391556 -0.006673399358987808 -0.7282360196113586 0.6771202087402344 -0.1057383120059967
-0.012056614272296429 0.028047408908605576 -0.05919530242681503 -0.591133713722229 0.28463298082351685 -0.7546820640563965
0.027612213045358658 0.01621786318719387 -0.03011370077729225 -0.2933562397956848 -0.05500009283423424 0.9544197916984558
-0.0015661083161830902 0.04583284258842468 -0.02838735282421112 0.6990357637405396 0.666580080986023 0.25888219475746155
-0.017109546810388565 0.02794245257973671 0.03455154597759247 0.6581984162330627 0.7191257476806641 0.22278451919555664
-0.023118972778320312 0.030533626675605774 -0.03532487526535988 -0.9052104353904724 0.302970826625824 0.2979978919029236
0.026215940713882446 0.05634620040655136 -0.04052990674972534 0.8628801107406616 0.31331750750541687 -0.39657294750213623
0.02809227630496025 0.03910902142524719 -0.0425950326025486 -0.883922815322876 0.46444401144981384 0.054518166929483414
-0.00928355474025011 0.02152882143855095 -0.06368237733840942 -0.38406580686569214 0.3648378849029541 -0.8481667041778564
-0.011377670802175999 -0.0355188325047493 -0.03318135812878609 0.2746153473854065 -0.6725002527236938 0.6872625350952148
-0.03427218273282051 -0.02996806614100933 -0.061785534024238586 -0.9024537801742554 -0.11400323361158371 -0.4154280722141266
0.026776108890771866 0.012934727594256401 -0.03194326162338257 -0.42625564336776733 0.05291527509689331 0.9030537605285645
-0.01895185187458992 0.009695328772068024 -0.01885223388671875 0.5744231939315796 0.5704931020736694 0.5870056748390198
0.05103472247719765 0.06502686440944672 -0.037143561989068985 0.6816316843032837 0.7316049933433533 0.011503763496875763
0.04979928955435753 0.019496215507388115 -0.04629474878311157 -0.6108973026275635 0.3751660883426666 -0.6971763968467712
-0.002858206629753113 -0.0030738934874534607 -0.034568071365356445 0.8927839994430542 0.03365062177181244 0.4492267966270447
-0.01006379071623087 0.026565123349428177 0.012315178290009499 0.6555090546607971 -0.7319353222846985 0.18595314025878906
-0.017168205231428146 0.011096109636127949 0.020297439768910408 0.9601101279258728 -0.1829700618982315 0.21144871413707733
-0.0015791691839694977 0.04488120228052139 -0.030965780839323997 0.5386675596237183 0.8414236307144165 0.042936909943819046
0.0248149074614048 0.02576444298028946 -0.029454383999109268 -0.013350474648177624 -0.04590211436152458 0.9988567233085632
-0.009128066711127758 -0.005943655967712402 -0.02147131785750389 0.9910704493522644 -0.12951983511447906 0.03168477490544319
-0.03533531725406647 -0.0207409355789423 -0.049435801804065704 -0.9841139316558838 -0.1145104393362999 -0.135672926902771
0.03708590194582939 0.006048204377293587 -0.025671422481536865 0.10441043972969055 0.18601299822330475 0.9769839644432068
-0.013416695408523083 0.017395930364727974 0.02618289180099964 0.45057326555252075 -0.8769850730895996 -0.16697567701339722
-0.007321064360439777 0.04709615558385849 -0.04960544407367706 0.15399150550365448 0.7603529691696167 -0.6309912800788879
0.042940735816955566 0.023244477808475494 -0.04166850075125694 0.8719451427459717 0.4471829831600189 0.1993466019630432
-0.012968442402780056 0.008208652026951313 -0.06745444983243942 0.009493207558989525 0.4691866338253021 -0.8830479979515076
0.02350981906056404 -0.010770117864012718 -0.0645715668797493 0.58282470703125 -0.3804195821285248 -0.7180503010749817
0.020215880125761032 0.044416315853595734 -0.05312106013298035 0.37714067101478577 0.5134499669075012 -0.7708009481430054
0.012854868546128273 0.07594772428274155 -0.01216861605644226 -0.9856522679328918 -0.14845572412014008 -0.0803147554397583
0.04096490144729614 0.045707084238529205 -0.051141172647476196 -0.0482630580663681 0.36978375911712646 -0.9278634786605835
-0.037086162716150284 -0.009564720094203949 -0.04285946488380432 -0.9351170063018799 0.2179030179977417 -0.27941811084747314
-0.031029820442199707 -0.00986635684967041 -0.06424632668495178 -0.7242318391799927 0.4839080274105072 -0.4912445843219757
-0.021213803440332413 0.007150654681026936 0.02602982334792614 0.6577723622322083 -0.6227551102638245 0.4236881136894226
-0.007926340214908123 -0.01243436150252819 -0.07643137127161026 -0.22396433353424072 0.4940313994884491 -0.8401029109954834
-0.0134271876886487 0.025267232209444046 0.0011544916778802872 -0.5745322704315186 -0.5522307753562927 -0.6041140556335449
-0.02354426309466362 -0.02778288908302784 -0.026980167254805565 -0.25305643677711487 -0.7865568399429321 0.5632856488227844
0.010960421524941921 0.02967182733118534 -0.030926600098609924 0.41371163725852966 -0.3140496611595154 0.8545264601707458
0.0031678429804742336 0.029045630246400833 -0.026939671486616135 0.6897242069244385 -0.248924121260643 0.6799392104148865
-0.025379564613103867 0.03341258317232132 0.021970482543110847 -0.5483044385910034 0.7685371041297913 0.3297165036201477
0.03645609691739082 0.06169753521680832 -0.04164455831050873 -0.9529081583023071 0.29144299030303955 -0.08382702618837357
0.023424681276082993 -0.05642785131931305 -0.05202449858188629 0.797198474407196 -0.5131639838218689 0.3180209994316101
-0.019701778888702393 0.02926454320549965 -0.05091921240091324 -0.7973408102989197 0.1306219846010208 -0.5892244577407837
-0.004808647558093071 0.0464840903878212 -0.03524639457464218 0.1615774780511856 0.849526047706604 0.5021933913230896
0.04959125071763992 0.06366737186908722 -0.011301016435027122 0.5275943279266357 -0.8436405658721924 0.09957350045442581
-0.029400862753391266 -0.04308371990919113 -0.06302106380462646 -0.7788659930229187 -0.5896824598312378 -0.21364061534404755
-0.005753855220973492 0.028822988271713257 -0.010273406282067299 0.8663783073425293 -0.48542776703834534 0.11725424230098724
-0.022115156054496765 -0.007123121991753578 -0.013666382059454918 0.3942652940750122 -0.4110991656780243 0.8219199180603027
0.025443919003009796 0.0621798112988472 -0.023363038897514343 0.6016588807106018 -0.4832681119441986 0.6359705328941345
0.009903296828269958 0.03951279819011688 -0.059540584683418274 -0.09402044862508774 0.7242234945297241 -0.6831254959106445
-0.024750418961048126 -0.022163646295666695 -0.021903015673160553 -0.19476929306983948 -0.66582852602005 0.7202341556549072
-0.01254453044384718 -0.020778367295861244 -0.07975616306066513 -0.22396433353424072 0.4940313994884491 -0.8401029109954834
0.0070518990978598595 0.009925815276801586 -0.03783058375120163 0.01960672438144684 -0.44376564025878906 0.8959283828735352
-0.02789412811398506 0.0060692159458994865 -0.05385112762451172 -0.84579998254776 0.3762676417827606 -0.3782130181789398
-0.005317808128893375 -0.02173478715121746 -0.02731833979487419 0.8109759092330933 -0.3829043209552765 0.4423826038837433
-0.0036573288962244987 0.04257059097290039 -0.005833016708493233 0.8877573609352112 0.39169177412986755 0.24179421365261078
-0.008404660038650036 0.024864405393600464 -0.026147987693548203 -0.2801370620727539 -0.6694014668464661 0.6880587935447693
0.03975433483719826 0.06929424405097961 -0.03365868702530861 -0.615310788154602 0.7539154291152954 -0.23022642731666565
-0.026902135461568832 0.023011483252048492 0.014079032465815544 -0.34934526681900024 0.9313833117485046 -0.10238673537969589
0.03368953987956047 -0.03526338189840317 -0.05918658524751663 0.7308644652366638 -0.3071404993534088 -0.6095095276832581
-0.001474098302423954 -0.06033968925476074 -0.05109943076968193 -0.31936201453208923 -0.7894565463066101 0.5241814851760864
0.06005682423710823 0.022358741611242294 -0.05164105445146561 -0.3744198977947235 -0.39891186356544495 -0.8370657563209534
-0.0066273268312215805 -0.02594090811908245 -0.08527760207653046 -0.22396433353424072 0.4940313994884491 -0.8401029109954834
0.020889416337013245 -0.038653552532196045 -0.07967670261859894 0.6434959173202515 0.5796120166778564 -0.4999628961086273
0.009196351282298565 0.08352166414260864 0.010393431410193443 -0.1833907961845398 0.8917285799980164 0.41374871134757996
0.011876667849719524 0.0747915729880333 -0.01709422469139099 -0.928896963596344 0.026423757895827293 -0.36939433217048645
0.03653467446565628 0.04493003338575363 -0.05120875686407089 -0.2537917494773865 0.43737176060676575 -0.8627257347106934
0.0360424779355526 0.050961144268512726 -0.034433551132678986 -0.7143272161483765 0.15377184748649597 0.6827085018157959
0.020308107137680054 0.029333820566534996 -0.02979740872979164 0.3338331878185272 0.5724856853485107 0.74887615442276
-0.017888791859149933 0.004408101551234722 -0.006411254405975342 0.9826198220252991 0.006523029413074255 0.18551485240459442
0.04908035695552826 -0.015169443562626839 -0.03418571501970291 0.6337020993232727 -0.7155181169509888 0.2940331697463989
0.020806971937417984 -0.014523576945066452 -0.06783725321292877 0.5100997090339661 0.2527523338794708 -0.8221402168273926
-0.0022099101915955544 0.04206996411085129 -0.00406881608068943 0.8739877343177795 0.46195268630981445 0.15081502497196198
0.028001010417938232 -0.05441565066576004 -0.07460719347000122 0.999517560005188 3.5735003621084616e-05 0.0310584157705307
0.03487427160143852 -0.008599454537034035 -0.05616379529237747 0.34728989005088806 -0.09090970456600189 -0.933340847492218
0.018256831914186478 0.08501966297626495 -0.008577022701501846 -0.09151152521371841 0.9877841472625732 -0.1261271834373474
0.028972957283258438 0.07748077064752579 -0.025763120502233505 0.7293071746826172 0.6836103200912476 -0.028069736436009407
-0.019645366817712784 0.024566534906625748 0.011763839051127434 -0.5363849997520447 -0.7084107398986816 -0.4587431848049164
0.0005159168504178524 -0.0005717724561691284 -0.04035086929798126 0.5064697265625 0.042442142963409424 0.8612125515937805
-0.026787612587213516 -0.005045166239142418 -0.007404206320643425 0.06731224805116653 -0.9159104824066162 0.3956981599330902
0.04064149409532547 0.013225752860307693 -0.028602130711078644 -0.007655022665858269 0.2827741205692291 0.9591559767723083
-0.016993682831525803 -0.003455622121691704 -0.06962136924266815 -0.15110629796981812 0.23115137219429016 -0.961111843585968
0.0010943319648504257 -0.010337455198168755 -0.037872813642024994 0.599486768245697 0.07056839764118195 0.7972676753997803
0.01637721247971058 -0.05090104788541794 -0.03976643830537796 0.16561560332775116 -0.5064918398857117 0.8461899757385254
0.03571842610836029 -0.0357213094830513 -0.044707510620355606 0.8533564805984497 -0.5128371119499207 -0.09370612353086472
-0.007782774977385998 0.04180976003408432 -0.05677470564842224 -0.5653831958770752 0.6044831275939941 -0.5611969828605652
-0.015745744109153748 0.021088767796754837 0.03864124417304993 0.40152186155319214 -0.0635739266872406 0.9136402606964111
-0.022673189640045166 -0.013192538172006607 -0.016873929649591446 -0.26085910201072693 -0.4146516025066376 0.871789276599884
-0.0006773071363568306 0.03177068009972572 -0.018632888793945312 0.8467429280281067 -0.53033447265625 0.04209267348051071
0.05012938380241394 0.0626087412238121 -0.010500743985176086 0.5360944271087646 -0.8268031477928162 0.17029178142547607
-0.010189215652644634 -0.03011886216700077 -0.02790260501205921 0.6189538240432739 -0.6784290075302124 0.3957654535770416
-0.00038496870547533035 -0.02391214855015278 -0.08257118612527847 0.3614850640296936 0.43403491377830505 -0.8251922130584717
0.06338521093130112 0.03643318638205528 -0.04738251864910126 0.01243439968675375 0.9039123058319092 -0.4275370240211487
-0.006422240287065506 -0.02553989551961422 -0.03272257372736931 0.9072399139404297 -0.16783864796161652 0.38567593693733215
0.0014165816828608513 0.002526792697608471 -0.07053127884864807 0.002162397373467684 0.3006244897842407 -0.953740119934082
0.020567316561937332 -0.03745958209037781 -0.08727799355983734 0.8611108064651489 0.5019224286079407 0.08100638538599014
0.055285315960645676 0.041684847325086594 -0.03169291839003563 -0.5816906690597534 0.6386814117431641 -0.5037083029747009
0.04458604380488396 0.022471919655799866 -0.04323191195726395 0.718888521194458 0.6361672878265381 -0.2801614999771118
0.027466963976621628 -0.044140301644802094 -0.07072823494672775 0.9964078664779663 -0.01129615306854248 0.08392681181430817
-0.02034430205821991 0.030085276812314987 -0.04887776076793671 -0.8863047361373901 0.13493920862674713 -0.44300711154937744
-0.011690345592796803 -0.013158390298485756 -0.07525285333395004 -0.22396433353424072 0.4940313994884491 -0.8401029109954834
-0.0051286593079566956 0.020844433456659317 -0.03329404443502426 -0.25939589738845825 -0.7130672931671143 0.6513438820838928
-0.01587563380599022 0.03562459349632263 -0.054535336792469025 -0.7492884397506714 0.10978753864765167 -0.6530800461769104
0.01994580216705799 -0.034507669508457184 -0.07625845074653625 0.6778671741485596 0.5612873435020447 -0.47481849789619446
0.035689666867256165 0.05996411293745041 -0.0001857411116361618 -0.5222468972206116 -0.8502902984619141 -0.06530408561229706
-0.028161991387605667 -0.009275555610656738 -0.0625770092010498 -0.7621467709541321 0.3171393573284149 -0.5644066333770752
0.021055053919553757 0.06961134076118469 0.002212459221482277 0.04725246503949165 -0.9595938920974731 -0.27739277482032776
-0.031227052211761475 -0.03591112047433853 -0.04562745615839958 -0.787528395652771 -0.5225850939750671 0.32665565609931946
-0.01109233032912016 0.035552702844142914 0.016219092532992363 0.5638666152954102 0.47680866718292236 0.6743203401565552
0.043119847774505615 -0.019892467185854912 -0.03130680322647095 0.48627784848213196 -0.6273491978645325 0.6082489490509033
0.01585659384727478 -0.047512128949165344 -0.037467967718839645 0.2086963802576065 -0.38033249974250793 0.9009955525398254
0.040951456874608994 0.012837705202400684 -0.04958072304725647 0.5357834100723267 0.1448492705821991 -0.8318381905555725
-0.02333936095237732 0.03058004006743431 0.007895762100815773 -0.4146957993507385 -0.9019164443016052 -0.12072321027517319
0.019321389496326447 -0.04011557996273041 -0.08836741000413895 0.5454665422439575 0.4862061142921448 -0.6826931238174438
0.005367184989154339 -0.025677183642983437 -0.08267837017774582 0.47549304366111755 0.5469470620155334 -0.6890248656272888
-0.02111133560538292 -0.0325203463435173 -0.028859561309218407 -0.22512902319431305 -0.7052021622657776 0.6723145246505737
0.008731490932404995 0.057554349303245544 -0.033594828099012375 -0.9917569160461426 0.11306790262460709 -0.060282040387392044
0.051538821309804916 0.06528016924858093 -0.034240953624248505 0.7854868173599243 0.5225319862365723 -0.3316183388233185
0.03264589607715607 0.041449304670095444 -0.050175584852695465 -0.47061431407928467 0.5079931616783142 -0.7214326858520508
0.04953964054584503 -0.012780917808413506 -0.04082368314266205 0.7981067895889282 -0.4447076916694641 -0.40652257204055786
-0.011849678121507168 -0.05345150828361511 -0.0536976084113121 -0.7418360710144043 -0.4892762005329132 0.45857173204421997
0.020503077656030655 0.025684770196676254 -0.03028596006333828 -0.28641992807388306 -0.2005825638771057 0.9368726015090942
0.002429848536849022 0.038061413913965225 -0.05833099037408829 -0.02006503939628601 0.8124691247940063 -0.5826588273048401
0.028493821620941162 0.008105754852294922 -0.05945673584938049 0.5962823033332825 0.06329977512359619 -0.8002752661705017
0.03776489570736885 0.06374134123325348 -0.03443299978971481 -0.9611283540725708 0.18706150352954865 -0.20307710766792297
-0.012913440354168415 0.027833838015794754 -0.024463869631290436 -0.24789968132972717 -0.7594236731529236 0.6015159487724304
0.020428523421287537 -0.013003619387745857 -0.03186235949397087 -0.20841167867183685 -0.09880932420492172 0.9730371236801147
-0.005320688709616661 0.038887687027454376 0.0036588329821825027 0.4976801574230194 0.6944645643234253 0.5196473598480225
-0.030552171170711517 -0.03865121304988861 -0.06833189725875854 -0.6342888474464417 -0.7665452361106873 0.10042905062437057
-0.002983454614877701 0.03100743517279625 -0.01331351324915886 0.7947880625724792 -0.5552463531494141 0.24497631192207336
0.060847122222185135 0.020706845447421074 -0.03643632307648659 0.24529001116752625 -0.04247578978538513 0.9685187935829163
0.024876102805137634 -0.051013849675655365 -0.047166675329208374 0.7544466853141785 -0.6492465138435364 -0.09638036042451859
0.02534552663564682 0.0024475613608956337 -0.06071820110082626 0.3013922870159149 0.019248152151703835 -0.9533059000968933
-0.03634117543697357 0.005096372216939926 -0.03441420570015907 -0.7463319301605225 0.34661591053009033 -0.5681954026222229
0.02403644099831581 0.08421163260936737 -0.003926265984773636 0.7181646823883057 0.6939548254013062 -0.05163557454943657
0.02524922788143158 0.0670212134718895 -0.01893674023449421 0.6821632981300354 -0.38768354058265686 0.6199634671211243
-0.012279006652534008 0.029878292232751846 0.019302373751997948 0.4487517476081848 0.6809724569320679 0.5787040591239929
0.004447317682206631 0.0793190523982048 0.009808706119656563 -0.9188959002494812 0.2571977972984314 -0.2991313636302948
0.02507941424846649 -0.02012019418179989 -0.02830979973077774 -0.3328555226325989 0.09134771674871445 0.938542902469635
-0.021972209215164185 -0.005554893985390663 -0.011422500014305115 0.529606282711029 -0.6326841115951538 0.5650026202201843
-0.028095964342355728 -0.004814267158508301 -0.06169253587722778 -0.8364652991294861 0.48672541975975037 -0.2518414855003357
0.024109255522489548 0.01635466143488884 -0.03197771683335304 -0.33789685368537903 0.11361122131347656 0.9343008995056152
-0.01000236812978983 -0.04839595407247543 -0.04786711558699608 -0.5907442569732666 -0.5078279972076416 0.6270023584365845
0.05634712427854538 0.03032069280743599 -0.01920677348971367 0.17041921615600586 -0.9267377853393555 0.3348347544670105
-0.020019862800836563 0.0318523645401001 -0.03024463728070259 -0.8498427271842957 -0.27178844809532166 0.4515511095523834
-0.03438195213675499 -0.02377910725772381 -0.06404870003461838 -0.9684444069862366 0.012819482944905758 -0.2488996684551239
-0.0069373613223433495 -0.00913519598543644 -0.029462553560733795 0.8927839994430542 0.03365062177181244 0.4492267966270447
0.02706325054168701 -0.046023137867450714 -0.07314760237932205 0.7651435136795044 0.5447718501091003 -0.343189537525177
0.012387149967253208 0.06890637427568436 -0.022807488217949867 -0.942493736743927 -0.23108802735805511 0.2414618879556656
0.035473816096782684 0.04167565703392029 -0.03355318680405617 -0.3855052888393402 0.2092428356409073 0.8986673951148987
0.05494106933474541 0.0234549380838871 -0.05049705505371094 -0.3281494975090027 0.2086600959300995 -0.9212919473648071
-0.01463110838085413 -0.021815726533532143 -0.021011872217059135 0.21749894320964813 -0.5010380744934082 0.8376485109329224
0.0542934313416481 0.01850985921919346 -0.033721454441547394 0.33710581064224243 0.41343212127685547 0.8458330631256104
0.02468257024884224 0.020160026848316193 -0.03071853145956993 -0.17414526641368866 -0.19884546101093292 0.9644345045089722
0.06306479871273041 0.03378058969974518 -0.051951587200164795 -0.12338877469301224 0.4745674133300781 -0.8715279698371887
-0.009830168448388577 -0.0019593480974435806 -0.07178466767072678 -0.255887895822525 0.35029342770576477 -0.9010082483291626
-0.003751171752810478 0.02970706671476364 -0.014472661539912224 0.47511860728263855 -0.8758018016815186 0.08504992723464966
-0.026355959475040436 0.02524431049823761 0.02797088213264942 -0.2869166135787964 -0.6076093912124634 -0.7406008839607239
0.026685252785682678 0.028301429003477097 -0.05732957273721695 0.44692689180374146 0.42855268716812134 -0.7852381467819214
0.017885982990264893 -0.06282743066549301 -0.05796875059604645 0.5582500100135803 -0.8109871745109558 0.17509053647518158
0.010475629940629005 0.08253758400678635 -0.002701135352253914 -0.7137020230293274 0.6871944069862366 -0.13562177121639252
0.07016623020172119 0.037387821823358536 -0.03987107798457146 0.8264293670654297 0.45085760951042175 -0.33725646138191223
-0.025198105722665787 0.016526419669389725 0.03621365875005722 -0.07513874024152756 -0.013749229721724987 0.9970782995223999
-0.03460507094860077 -0.004581542685627937 -0.011020997539162636 -0.650359034538269 -0.7596247792243958 -0.0018297750502824783
-0.023650843650102615 0.026936817914247513 -0.04433630034327507 -0.9835328459739685 0.17269819974899292 0.05327761918306351
-0.004165444523096085 0.041943155229091644 -0.055299095809459686 0.33646053075790405 0.8293854594230652 -0.4459978938102722
-0.019599314779043198 -0.04900798946619034 -0.05251163989305496 -0.4487079381942749 -0.5622889995574951 0.6946166157722473
0.02608715370297432 0.055041514337062836 -0.030459994450211525 0.6624723672866821 -0.5472739338874817 0.5114896893501282
0.03599374741315842 0.06512180715799332 -0.009068621322512627 -0.9474385380744934 -0.25566959381103516 -0.19233635067939758
0.006341284140944481 -0.027528217062354088 -0.08460082113742828 0.5377710461616516 0.4537457823753357 -0.7105751633644104
0.003497455734759569 -0.022422952577471733 -0.036353904753923416 -0.07440030574798584 0.09789522737264633 0.9924117922782898
0.02722008153796196 0.050926871597766876 -0.03535783290863037 0.8627392649650574 -0.47698739171028137 0.16782136261463165
-0.025196321308612823 0.01509865466505289 -0.05386003106832504 -0.753219723701477 0.4912327229976654 -0.4374362528324127
0.010822206735610962 0.02655467391014099 -0.0315820537507534 0.6788881421089172 -0.3980918526649475 0.6169552206993103
0.019711937755346298 0.07907392084598541 0.010706694796681404 0.6971309185028076 0.3985827565193176 0.5959364175796509
0.037856634706258774 0.06294223666191101 -0.03565436229109764 -0.9922972321510315 0.05087955296039581 -0.11294906586408615
-0.012371203862130642 0.004606402479112148 -0.01911250129342079 0.6260655522346497 0.18896400928497314 0.7565279006958008
0.04365864023566246 0.025867726653814316 -0.045389652252197266 0.9050421118736267 -0.10746230185031891 -0.41152238845825195
0.010950464755296707 0.0217623021453619 -0.03428416699171066 0.11199884861707687 -0.2624798119068146 0.958415687084198
0.02312316559255123 0.041628047823905945 -0.034583523869514465 0.7884898781776428 0.12990573048591614 0.6011723875999451
-0.022546954452991486 0.022325849160552025 0.012576157227158546 -0.24871300160884857 0.5534061789512634 -0.7949109673500061
-0.024974778294563293 -0.0003300737589597702 -0.05916561558842659 -0.5971457958221436 0.447590708732605 -0.6656421422958374
0.05295785889029503 0.026228945702314377 -0.04613345116376877 -0.7840675115585327 0.5668213367462158 -0.2528868019580841
-0.020970426499843597 0.02504696696996689 0.010459402576088905 -0.38291314244270325 -0.8377723693847656 -0.3892490863800049
-0.029062088578939438 0.009301800280809402 -0.04756300523877144 -0.8468213081359863 0.5267003774642944 -0.07402952760457993
0.03727111965417862 -0.029293427243828773 -0.054095201194286346 0.5720705986022949 -0.22884003818035126 -0.7876340746879578
0.012125425040721893 0.0545344352722168 -0.026792388409376144 -0.7536858916282654 -0.158258855342865 0.6378963589668274
-0.027492791414260864 0.026331981644034386 0.02664824388921261 -0.4023860692977905 0.44249916076660156 0.8014236688613892
0.022960014641284943 -0.02018425427377224 -0.032408036291599274 -0.40670710802078247 0.12567710876464844 0.904872715473175
0.04172055423259735 0.006796492263674736 -0.04978105425834656 0.6272646188735962 0.21585027873516083 -0.7482965588569641
-0.008882575668394566 0.03624291718006134 0.012256858870387077 0.5627386569976807 0.6595613360404968 0.4983011484146118
-0.011832860298454762 0.004036415368318558 -0.06969637423753738 -0.09439412504434586 0.6486128568649292 -0.7552424073219299
0.05292395129799843 0.0597333163022995 -0.04312915354967117 0.8853312134742737 0.4549153745174408 -0.09612835943698883
0.026683013886213303 0.03801277279853821 -0.050870612263679504 0.6828533411026001 0.3318353295326233 -0.6508430242538452
-0.027109157294034958 -0.009376529604196548 -0.016000360250473022 -0.08879731595516205 -0.6922101974487305 0.7162123322486877
-0.028427716344594955 0.012166313827037811 0.035495586693286896 -0.3430420160293579 -0.6301623582839966 0.6965755820274353
0.01522563211619854 -0.010594327002763748 -0.03591476380825043 -0.399318665266037 0.3449051082134247 0.8494616150856018
-0.009051530621945858 -0.020985262468457222 -0.025897454470396042 0.543860137462616 -0.5226569771766663 0.6565408110618591
-0.01812274381518364 0.004025504924356937 -0.06747546046972275 -0.6188414692878723 0.1432170420885086 -0.7723497748374939
-0.005186258815228939 -0.029412580654025078 -0.03417826443910599 0.46395227313041687 -0.17995627224445343 0.8673892021179199
-0.020025242120027542 0.01917719468474388 0.03707706928253174 -0.2687320113182068 -0.7468195557594299 0.6083121299743652
0.025039177387952805 -0.05906710773706436 -0.05600694566965103 0.874869167804718 -0.32422441244125366 -0.35983678698539734
0.03766992688179016 0.027012169361114502 -0.0329597108066082 0.3671409487724304 0.1382373422384262 0.9198358058929443
0.071128711104393 0.026648379862308502 -0.04167705401778221 0.9596430659294128 -0.2752838730812073 0.05748052895069122
-0.005260175094008446 0.03018447756767273 -0.011127879843115807 0.5883282423019409 -0.7684707641601562 0.2516397535800934
0.049188029021024704 0.03516688197851181 -0.016710761934518814 -0.6902720332145691 -0.40306445956230164 0.6008856296539307
