0.017937064170837402 -0.019423652440309525 -0.03817049413919449 0.32540202140808105 0.39055392146110535 0.8611511588096619
-0.02228439971804619 -0.009920451790094376 -0.05809734761714935 -0.9540077447891235 -0.2960413098335266 -0.04720974713563919
0.04061249643564224 0.01683344878256321 -0.017118657007813454 -0.9990364909172058 -0.019093239679932594 -0.03951619192957878
0.03779078274965286 0.04086001217365265 0.006262600421905518 0.955593466758728 0.002608018461614847 -0.29467669129371643
-0.04867203161120415 0.028727566823363304 -0.03690380975604057 0.14603067934513092 -0.16174550354480743 0.9759679436683655
-0.00764975231140852 -0.037422504276037216 -0.0718553215265274 -0.8342997431755066 -0.1337491273880005 -0.5348411798477173
0.013052430935204029 0.03408573567867279 -0.04632605239748955 -0.31057605147361755 -0.6191866993904114 0.7212144732475281
-0.02704247087240219 0.06036112457513809 -0.06494613736867905 -0.5136281847953796 -0.261218398809433 -0.8172827363014221
-0.0021657925099134445 0.001903824508190155 -0.04023926705121994 0.5300731062889099 0.20832547545433044 0.8219628930091858
0.02686120569705963 0.058353226631879807 -0.0558377206325531 0.04952074959874153 0.9817027449607849 -0.18386796116828918
-0.02492467686533928 0.026796093210577965 -0.06177499145269394 -0.8114715218544006 0.10302281379699707 -0.5752393007278442
0.04329589381814003 -0.02635921537876129 -0.08775249123573303 0.9360408186912537 0.3389727473258972 -0.09447279572486877
0.007497347891330719 0.01474665105342865 -0.04893001914024353 0.3078424334526062 0.05419262498617172 0.9498926997184753
0.05191410332918167 -0.007299685850739479 -0.07378295063972473 0.7568315267562866 0.22904722392559052 -0.6121629476547241
-0.04287571832537651 0.01156136766076088 -0.04849968105554581 -0.5962746739387512 -0.7169565558433533 -0.36115071177482605
-0.017120886594057083 0.0029674097895622253 -0.031367406249046326 0.043551716953516006 -0.12402956932783127 0.9913222789764404
-0.02395758032798767 0.03322047367691994 -0.048322923481464386 -0.849909782409668 0.2660939395427704 0.45480474829673767
0.015243109315633774 0.05158768594264984 -0.0029818490147590637 -0.9339982867240906 0.02824067696928978 0.3561595380306244
0.004328110720962286 0.05419868603348732 -0.04515951871871948 0.10290737450122833 -0.46396881341934204 0.8798539638519287
0.053357332944869995 -0.03970266506075859 -0.056612394750118256 0.6600163578987122 -0.6397222280502319 0.39387041330337524
0.019220447167754173 -0.018541280180215836 -0.08677682280540466 -0.005615957546979189 0.005238840822130442 -0.9999704957008362
0.06535165011882782 0.018853895366191864 -0.021679889410734177 0.9023389220237732 0.3018926680088043 0.3076448142528534
-0.053887877613306046 0.03810574859380722 -0.05452762544155121 0.5125380754470825 0.28837671875953674 -0.80879145860672
-0.009695646353065968 0.0013771243393421173 -0.07200200110673904 -0.5805243849754333 -0.1961742490530014 -0.7902576327323914
0.0606834851205349 -0.01626196876168251 -0.06373515725135803 0.9402852058410645 -0.06838346272706985 -0.33344775438308716
0.04802558943629265 0.024936016649007797 -0.05200387164950371 0.9146669507026672 0.3972051441669464 0.07491593062877655
-0.012476646341383457 -0.03473380580544472 -0.06007636338472366 -0.9273834228515625 -0.2728816866874695 -0.2559211254119873
0.01772148534655571 0.04561593011021614 -0.008009817451238632 -0.5595476031303406 -0.827671229839325 -0.04320622608065605
-0.00470784492790699 0.05060002580285072 -0.05006968602538109 -0.8293724060058594 0.15936769545078278 0.5354841947555542
0.00868929736316204 0.019345024600625038 -0.08080662786960602 -0.20183417201042175 0.032907504588365555 -0.9788667559623718
0.011238775216042995 -0.056172922253608704 -0.05046212673187256 0.16169977188110352 -0.8529219627380371 0.49636411666870117
0.04781294986605644 0.004808289930224419 -0.07273756712675095 0.6221515536308289 0.3125420808792114 -0.7178056240081787
-0.008626949973404408 0.06194165349006653 -0.043426670134067535 -0.7954325675964355 -0.5469772815704346 0.2609652578830719
-0.018435470759868622 0.05002903193235397 -0.06689039617776871 0.34148234128952026 0.23902685940265656 -0.9089862108230591
-0.03726958855986595 0.06250487267971039 -0.04897471144795418 -0.782019317150116 -0.48066169023513794 0.39674943685531616
0.00987218040972948 0.05974427983164787 -0.010521169751882553 -0.10331209748983383 -0.9559926986694336 -0.2745988965034485
0.06147749722003937 -0.016010168939828873 -0.03587832674384117 0.8420658707618713 0.1250467747449875 0.5246793627738953
0.02705337107181549 -0.015521321445703506 -0.03074854239821434 -0.4018716812133789 -0.2068975865840912 0.8920159935951233
0.041038401424884796 0.03283308818936348 0.01326143741607666 0.7415291666984558 -0.0688568726181984 0.6673778891563416
0.020161818712949753 0.0535561665892601 0.001714453101158142 -0.8259079456329346 0.27932241559028625 0.4897499680519104
0.04325392097234726 -0.03919454291462898 -0.039484817534685135 0.05894201248884201 -0.8358829617500305 0.5457339286804199
-0.027635324746370316 0.07947934418916702 -0.046868570148944855 -0.2765415906906128 0.9056539535522461 -0.32142752408981323
-0.009825619868934155 0.04455610737204552 -0.04780584201216698 -0.25872287154197693 0.7394821643829346 0.6214728951454163
0.051224831491708755 0.023131664842367172 -0.04284239187836647 0.5977429151535034 0.707633912563324 -0.3767727315425873
-0.03289885073900223 0.06345003843307495 -0.061460867524147034 -0.5994424223899841 0.030303748324513435 -0.7998440265655518
0.0330427847802639 0.04628404602408409 0.012030374258756638 0.3697803318500519 0.6476464867591858 0.6661955714225769
-0.018719635903835297 0.07039658725261688 -0.0524100661277771 0.9037788510322571 0.3901134133338928 -0.17605488002300262
0.024819398298859596 0.008779340423643589 -0.0822639912366867 0.29366740584373474 0.297826886177063 -0.9083273410797119
0.04777572304010391 0.014623403549194336 0.0002023354172706604 0.1145159974694252 -0.9424951076507568 0.31398889422416687
-0.01754339411854744 0.001174701377749443 -0.06577681750059128 -0.691097617149353 -0.014649559743702412 -0.7226129770278931
-0.026413381099700928 0.07252726703882217 -0.018626438453793526 -0.7919201254844666 -0.18691644072532654 0.5813129544258118
0.04479631781578064 0.008928820490837097 -0.07395181804895401 0.8605981469154358 0.09235630929470062 -0.5008404850959778
0.03450576961040497 0.021436059847474098 0.0029484257102012634 -0.8373120427131653 -0.507597029209137 -0.20311027765274048
-0.010307717137038708 0.043525874614715576 -0.06765714287757874 -0.5683619976043701 0.5506336092948914 -0.6113650798797607
-0.021778706461191177 0.017562640830874443 -0.0625419095158577 -0.6121081709861755 0.0230708047747612 -0.7904374599456787
0.03861694782972336 0.030522525310516357 -0.0475071519613266 0.2816748321056366 0.8907324075698853 0.35672828555107117
0.03301500156521797 -0.030140738934278488 -0.09269492328166962 0.22654248774051666 0.33334097266197205 -0.9151843190193176
0.011930519714951515 -0.061185888946056366 -0.05652626231312752 -0.01657075248658657 -0.5787110924720764 0.8153642416000366
-0.029606640338897705 -0.000712687149643898 -0.04016951844096184 -0.4626293480396271 -0.6897539496421814 0.5569682121276855
-0.03125273436307907 0.024541299790143967 -0.03891421854496002 -0.17878328263759613 0.6946579217910767 0.6967688798904419
-0.007113275118172169 -0.046544015407562256 -0.07466377317905426 -0.9548574090003967 0.11492261290550232 -0.2739345133304596
-0.003071216866374016 0.039795685559511185 -0.0450066477060318 -0.3461746573448181 -0.013137934729456902 0.9380781054496765
0.054309166967868805 -0.029248759150505066 -0.07442689687013626 0.9023173451423645 -0.07415164262056351 -0.42464679479599
-0.039252929389476776 0.03017329052090645 -0.05281233787536621 0.3322889506816864 0.7501806020736694 -0.571675717830658
-0.050396453589200974 0.05439644306898117 -0.030396129935979843 0.6914643049240112 0.40720826387405396 -0.5967064499855042
0.0069032516330480576 -0.01938815787434578 -0.03529782593250275 0.32540202140808105 0.39055392146110535 0.8611511588096619
-0.06274648755788803 0.04890383034944534 -0.038569025695323944 -0.7895368337631226 0.5010590553283691 -0.35436058044433594
0.04951201751828194 0.028039399534463882 -0.02111496403813362 -0.3737930357456207 0.7377222776412964 -0.5621784329414368
0.05124684423208237 0.021533053368330002 -0.03983331844210625 0.21684955060482025 0.9695522785186768 -0.11377474665641785
-0.02414141595363617 -0.0034676529467105865 -0.0358181856572628 -0.6323236227035522 -0.260587602853775 0.7295621633529663
0.05021781101822853 -0.03926890715956688 -0.05168028920888901 0.7449325323104858 -0.605341374874115 0.2804234027862549
0.03779832273721695 0.053235046565532684 -0.047770027071237564 0.9294185638427734 0.36472153663635254 0.05620839074254036
0.01803714409470558 0.04578670859336853 -0.00532117486000061 -0.6395779848098755 -0.684995710849762 -0.3488852381706238
-0.001723671332001686 -0.012808900326490402 -0.07490368187427521 -0.5513170957565308 0.07361039519309998 -0.8310421109199524
0.06363513320684433 -0.017097868025302887 -0.05060136318206787 0.9656553864479065 -0.25671613216400146 -0.04008172079920769
0.030342862010002136 0.05107185244560242 -0.07125867903232574 0.19406169652938843 0.9641191959381104 0.18114705383777618
-0.009163848124444485 -0.044245362281799316 -0.06641706079244614 -0.7821629643440247 -0.3212278485298157 -0.5338855385780334
0.043838731944561005 -0.02489345520734787 -0.026723140850663185 0.16797050833702087 -0.5416600108146667 0.8236445188522339
0.0036280681379139423 0.0104019520804286 -0.047013137489557266 0.3911902606487274 0.30260950326919556 0.8691361546516418
0.013536256738007069 0.06173180043697357 -0.03324039280414581 -0.7305787801742554 0.671414852142334 -0.12432511895895004
0.057457633316516876 -0.028797201812267303 -0.06736566126346588 0.9518645405769348 -0.10914354771375656 -0.28642892837524414
-0.04531446471810341 0.026535144075751305 -0.05564138665795326 -0.5170800089836121 -0.22762201726436615 -0.8251160383224487
0.018006179481744766 0.0664329081773758 -0.012021796777844429 0.7318571209907532 -0.0715080201625824 -0.6776959300041199
0.030915960669517517 -0.0024757198989391327 -0.08290387690067291 -0.2523822486400604 0.23571161925792694 -0.9384791851043701
0.03688565269112587 -0.013460088521242142 -0.08312059938907623 0.6449130773544312 0.1305917352437973 -0.7530158758163452
0.04371168836951256 0.025657638907432556 -0.04521966725587845 0.5678161382675171 0.7544888257980347 0.32913750410079956
0.048757076263427734 0.03407593443989754 -0.012183211743831635 -0.12076692283153534 0.8102602362632751 -0.5734925270080566
-0.024347081780433655 0.033288974314928055 -0.04637204110622406 -0.7462102174758911 0.37662017345428467 0.5489330887794495
-0.009855897165834904 0.005606932565569878 -0.03631797060370445 0.3804040849208832 0.05021568015217781 0.923456072807312
0.017216989770531654 -0.041059765964746475 -0.03607131168246269 0.20923979580402374 0.05536165088415146 0.9762959480285645
0.007838432677090168 -0.06078483164310455 -0.05419491231441498 -0.10528954863548279 -0.5933875441551208 0.7980008125305176
-0.040694598108530045 0.028912946581840515 -0.05707294121384621 0.5183282494544983 0.33743080496788025 -0.785796582698822
0.020348068326711655 0.04556215927004814 -0.020092083141207695 -0.06565593928098679 -0.9840788245201111 -0.1651609241962433
0.03210917487740517 0.0033324509859085083 -0.08175712078809738 0.36203792691230774 -0.040442049503326416 -0.9312856793403625
-0.005910190753638744 -0.03293324261903763 -0.07508024573326111 -0.8496261835098267 -0.003021321492269635 -0.5273767709732056
-0.025566857308149338 0.08281156420707703 -0.02469063177704811 -0.26910412311553955 0.30392250418663025 0.9139004945755005
0.01580500230193138 0.054903317242860794 -0.0557788722217083 -0.7093741297721863 0.7000187635421753 -0.08223195374011993
0.029000405222177505 -0.016097933053970337 -0.030171895399689674 -0.6143972277641296 -0.15449105203151703 0.7737237811088562
0.022276945412158966 0.0002316199243068695 -0.0451723113656044 -0.7726086378097534 0.2378598302602768 0.588641345500946
0.022655818611383438 0.06389232724905014 -0.02233484759926796 -0.3567858636379242 0.933996856212616 -0.018805762752890587
0.03462096303701401 0.028569575399160385 -0.004474647343158722 -0.7936838865280151 0.10573039203882217 -0.599071741104126
0.01461012288928032 0.061541322618722916 -3.0025839805603027e-05 0.05599462613463402 -0.45897042751312256 0.886685311794281
0.0489334836602211 -0.03165882080793381 -0.08183181285858154 0.8603506088256836 0.2885577380657196 -0.42015621066093445
0.008641662076115608 0.025759465992450714 -0.08108138293027878 -0.20183417201042175 0.032907504588365555 -0.9788667559623718
-0.03168056905269623 0.0720595121383667 -0.057912297546863556 -0.3106529116630554 0.7168093919754028 -0.6242427825927734
0.028401236981153488 -0.031366053968667984 -0.09346908330917358 -0.36552613973617554 0.3481259047985077 -0.8632491230964661
0.0005162935703992844 -0.039371784776449203 -0.08294492959976196 -0.7630776762962341 0.4846233129501343 -0.4276127815246582
0.06532280147075653 0.01600118726491928 -0.03276103362441063 0.8027893900871277 0.37344807386398315 -0.4648287296295166
-0.03226189315319061 0.01154948491603136 -0.059039972722530365 -0.3740578889846802 -0.6550281047821045 -0.6565202474594116
-0.024098463356494904 0.07865779101848602 -0.04932598024606705 0.4197160303592682 0.824731171131134 -0.3790210783481598
0.0015175286680459976 0.017617929726839066 -0.04690084606409073 0.35085052251815796 -0.058776453137397766 0.9345850348472595
-0.03490439057350159 0.015102406963706017 -0.037364739924669266 -0.42254698276519775 -0.2931286096572876 0.8576302528381348
-0.0009281188249588013 -0.05977921932935715 -0.060610368847846985 -0.7659608721733093 -0.5607057809829712 0.3145042955875397
-0.010048448108136654 0.07257862389087677 -0.028157450258731842 0.2811134159564972 -0.8890072107315063 -0.36144357919692993
0.013478988781571388 0.08152025938034058 -0.01782379485666752 0.9443315863609314 0.3272583484649658 -0.03376086428761482
0.028135690838098526 0.05787669122219086 -0.056158002465963364 -0.1851617693901062 0.9062866568565369 -0.37994685769081116
0.007667187601327896 0.08522459119558334 -0.03352297842502594 0.5306777954101562 0.8415983319282532 -0.10046520829200745
-0.00013722293078899384 0.04122386872768402 -0.041891228407621384 0.2472686767578125 0.23110607266426086 0.9409825801849365
-0.022847704589366913 -0.015238109976053238 -0.05358336120843887 -0.958533525466919 -0.22517350316047668 -0.17467203736305237
0.026928208768367767 -0.0030889268964529037 -0.03327755630016327 -0.7218155264854431 0.3559357225894928 0.5935420393943787
-0.043572429567575455 0.03198061138391495 -0.03928383067250252 0.1536194235086441 0.5040467381477356 0.8499046564102173
-0.017795156687498093 -0.017547544091939926 -0.03827672451734543 -0.8929545879364014 -0.07445020228624344 0.44394731521606445
-0.007043546997010708 -0.04150788486003876 -0.07275390625 -0.8863745331764221 -0.2733384370803833 -0.37366607785224915
0.04282161965966225 0.022080639377236366 -0.015748893842101097 -0.9738379120826721 0.2219609022140503 -0.04871425777673721
0.017968593165278435 0.06966537237167358 -0.0011174380779266357 0.49564480781555176 0.5071318745613098 0.705091118812561
-0.05020124465227127 0.05356522649526596 -0.01866065338253975 0.7382725477218628 -0.42034533619880676 0.5275068283081055
0.005300895776599646 0.04692211002111435 -0.04520771652460098 -0.28478068113327026 0.07606889307498932 0.9555697441101074
0.034132231026887894 0.05380096286535263 -0.032522134482860565 0.9975125193595886 -0.07034406810998917 -0.004521314520388842
-0.03192412853240967 0.07551087439060211 -0.02814606949687004 -0.8820616006851196 -0.04951571673154831 0.4685248136520386
-0.015210895799100399 0.014421913772821426 -0.03523631393909454 0.08108286559581757 0.2802205979824066 0.9565050601959229
0.01624596305191517 0.05337152257561684 -0.0034107863903045654 -0.8514329791069031 0.15825998783111572 0.5000156760215759
-0.015436184592545033 -0.008370716124773026 -0.032655633985996246 -0.12473935633897781 0.006853529252111912 0.9921658635139465
0.04649269953370094 0.022626133635640144 0.009654287248849869 0.3194999396800995 -0.10875638574361801 0.9413245320320129
0.0051223658956587315 0.03968111425638199 -0.04375005513429642 -0.35930192470550537 0.1122087761759758 0.9264509081840515
0.01675255037844181 -0.01708999276161194 -0.03951672464609146 0.32540202140808105 0.39055392146110535 0.8611511588096619
0.06343076378107071 0.02622022107243538 -0.00741514191031456 0.9810797572135925 0.17432977259159088 -0.0842120349407196
0.029804162681102753 0.04651489108800888 -0.030365345999598503 0.5367469191551208 -0.6211708188056946 0.571007490158081
-0.033993229269981384 0.02074776403605938 -0.036015626043081284 -0.018446849659085274 0.45593762397766113 0.8898205161094666
-0.025532331317663193 0.02144617959856987 -0.06157665699720383 -0.38993000984191895 0.013547811657190323 -0.9207448363304138
0.00043855421245098114 0.04840428754687309 -0.07157650589942932 -0.1738501936197281 0.34969791769981384 -0.9205908179283142
0.02575291320681572 -0.02282976359128952 -0.032193608582019806 -0.5434369444847107 -0.16666291654109955 0.8227391839027405
0.05829628184437752 -0.028409801423549652 -0.06635500490665436 0.8554756045341492 0.07117944210767746 -0.5129278302192688
0.05815336853265762 0.007423299364745617 -0.05470673367381096 0.8323514461517334 0.3847988247871399 -0.3988996744155884
0.05062052607536316 -0.042514413595199585 -0.0568356066942215 0.6657962203025818 -0.5114203691482544 0.5432904958724976
0.01168176531791687 -0.009639464318752289 -0.08224944025278091 -0.39181339740753174 -0.30824053287506104 -0.8668737411499023
0.05115698277950287 0.021482182666659355 0.004554100334644318 0.18139806389808655 -0.2258039265871048 0.9571349620819092
0.06342143565416336 0.002140861004590988 -0.020970098674297333 0.849985659122467 -0.26854467391967773 0.4532197415828705
0.009225405752658844 -0.016550149768590927 -0.036535993218421936 0.32540202140808105 0.39055392146110535 0.8611511588096619
0.008044436573982239 0.07435360550880432 -0.006148934364318848 -0.12055450677871704 0.30146652460098267 0.9458248019218445
-0.014277822338044643 -0.012823410332202911 -0.03315536305308342 -0.41360706090927124 -0.019910773262381554 0.910237729549408
-0.009634305723011494 0.06399448215961456 -0.04365929588675499 -0.9231646060943604 -0.26674002408981323 0.27679750323295593
-0.0034689512103796005 -0.05058152973651886 -0.05159086734056473 -0.7717745304107666 -0.5764118432998657 0.26853951811790466
-0.01076731737703085 0.0760587826371193 -0.02367209643125534 -0.5652245283126831 0.6209319829940796 0.5431064963340759
-0.01726386323571205 -0.026687413454055786 -0.05929810553789139 -0.8977627754211426 -0.32757553458213806 -0.2944762408733368
0.03626151755452156 0.0382823720574379 0.00895284116268158 -0.4436745345592499 0.8722012639045715 -0.2059558928012848
-0.02243761345744133 -0.01965295895934105 -0.04333534836769104 -0.8603413105010986 -0.5003045201301575 0.09751034528017044
0.023254042491316795 0.059798192232847214 -0.05347135663032532 0.14801232516765594 0.9449570178985596 -0.29180222749710083
0.06067676097154617 0.010657508857548237 -0.0055684894323349 0.7553383111953735 -0.42081573605537415 0.5023725032806396
-0.016158059239387512 -0.01732533797621727 -0.06598712503910065 -0.9131330847740173 -0.14263305068016052 -0.38189494609832764
-0.0017309896647930145 0.005654011853039265 -0.07736986875534058 -0.4875166416168213 0.0671013593673706 -0.8705313801765442
0.0026852055452764034 0.030816543847322464 -0.04674157500267029 0.33755603432655334 -0.28483593463897705 0.8971757888793945
-0.0579778216779232 0.06349245458841324 -0.02023300528526306 -0.38781172037124634 0.8099899291992188 -0.4399071931838989
0.022400707006454468 -0.03833232820034027 -0.042148690670728683 0.41053682565689087 0.5447199940681458 0.7312589883804321
-0.04475538060069084 0.027825333178043365 -0.056347403675317764 -0.46683400869369507 -0.1630723625421524 -0.8691797256469727
0.03307025134563446 0.05809411779046059 -0.046980343759059906 0.5775153040885925 0.8111585974693298 -0.09218376874923706
-0.04887695610523224 0.04317355901002884 -0.0403159074485302 0.8266470432281494 0.46177536249160767 0.3215869963169098
-0.033670973032712936 0.012494217604398727 -0.03648914396762848 -0.6441897749900818 -0.18053223192691803 0.7432547211647034
0.006984456907957792 -0.04228849709033966 -0.036866165697574615 -0.09473641961812973 -0.34384605288505554 0.9342349171638489
0.052537232637405396 -0.02593984454870224 -0.0769653171300888 0.6202389001846313 0.020363766700029373 -0.784148633480072
0.006132555194199085 0.004996301606297493 -0.08049124479293823 -0.27471262216567993 0.055525895208120346 -0.9599217772483826
-0.0015033306553959846 -0.0015000682324171066 -0.03896203637123108 0.43982118368148804 0.5128568410873413 0.737248420715332
-0.03360694646835327 0.05677776038646698 -0.06073925644159317 -0.8791017532348633 -0.38796812295913696 -0.2768770456314087
0.01342683844268322 0.08095059543848038 -0.018879331648349762 0.9636630415916443 0.257355272769928 -0.07156654447317123
0.032153915613889694 0.01400569174438715 -0.03421330079436302 -0.9140149354934692 0.3727268576622009 0.1601603776216507
0.028140634298324585 0.003866305574774742 -0.03759980946779251 -0.777594804763794 0.36434268951416016 0.512445867061615
-0.0005920333787798882 0.07773952186107635 -0.012149754911661148 -0.6865838766098022 0.024657132104039192 0.7266323566436768
0.05032666027545929 0.025049731135368347 -0.028918558731675148 -0.3371918499469757 0.884981095790863 -0.32110756635665894
0.005022130440920591 0.013127665035426617 -0.047665536403656006 0.30397066473960876 -0.01750355027616024 0.9525206089019775
-0.017438139766454697 0.081192746758461 -0.01799970678985119 0.24089282751083374 0.9653931260108948 -0.0999339148402214
0.04485687240958214 0.02497699484229088 -0.06737177819013596 0.6212694048881531 0.5110439658164978 -0.5940188765525818
0.010885437950491905 0.03648224472999573 -0.04433515667915344 -0.16098074615001678 -0.5767662525177002 0.8008906841278076
0.021079905331134796 0.023675337433815002 -0.049307942390441895 -0.10843366384506226 0.0590994656085968 0.99234539270401
-0.05252456292510033 0.05761576443910599 -0.013889214023947716 0.044764719903469086 -0.07490010559558868 0.9961857795715332
0.02852531522512436 0.0291847325861454 -0.047650549560785294 -0.5033249855041504 0.1107977032661438 0.8569643497467041
-0.01565268263220787 -0.0024457089602947235 -0.031796894967556 0.0450805127620697 0.11627699434757233 0.9921932220458984
0.060305021703243256 -0.009901965036988258 -0.064828060567379 0.8488655686378479 -0.04641949012875557 -0.5265666842460632
-0.014486358501017094 0.08129270374774933 -0.014845343306660652 0.0780835747718811 0.9375568628311157 0.3389544188976288
0.057999011129140854 -0.020087875425815582 -0.06865031272172928 0.9086012840270996 -0.2632419466972351 -0.3242643177509308
0.030130643397569656 0.034625522792339325 -0.04707349091768265 0.12367791682481766 -0.21342213451862335 0.9690999984741211
-0.01664287969470024 -0.011391472071409225 -0.033485572785139084 -0.13994257152080536 -0.7305388450622559 0.6683779954910278
0.05948995053768158 0.014511671848595142 -0.04131544381380081 0.2654704749584198 0.46442684531211853 -0.8448864817619324
-0.050205450505018234 0.04703103005886078 -0.039568934589624405 0.9143384099006653 0.4039751887321472 0.028094293549656868
-0.030031878501176834 0.07933858036994934 -0.027207734063267708 -0.8711982369422913 0.2961655855178833 0.3915349543094635
0.02065395563840866 0.06565751880407333 -0.030481606721878052 -0.1657802015542984 0.9857507944107056 0.028500987216830254
-0.002452080138027668 0.041975926607847214 -0.04481227695941925 -0.05524565279483795 0.07640225440263748 0.9955453872680664
0.02010371722280979 0.057634174823760986 -0.053294114768505096 -0.3015535771846771 0.9089818596839905 -0.2877802550792694
0.03357957676053047 0.04080425202846527 -0.045780643820762634 0.6963526010513306 -0.6836757659912109 0.2183586061000824
-0.056487102061510086 0.03265523165464401 -0.0325126014649868 -0.252066433429718 -0.42245450615882874 0.8706288933753967
-0.06500301510095596 0.0434265099465847 -0.03563322871923447 -0.9539273977279663 0.21573098003864288 0.20852483808994293
-0.018426671624183655 -0.0025972723960876465 -0.03202785179018974 -0.26280224323272705 -0.12144738435745239 0.9571757912635803
0.04644477739930153 -0.0010121557861566544 -0.07582881301641464 0.7110064625740051 0.04400563985109329 -0.7018072009086609
-0.03548142686486244 0.05859050154685974 -0.05298599973320961 -0.9509352445602417 -0.24771393835544586 0.18536455929279327
-0.05032160133123398 0.05223647132515907 -0.03355134651064873 0.9135733842849731 0.14815859496593475 -0.37872517108917236
0.044708795845508575 -0.02583913505077362 -0.028612086549401283 -0.13894666731357574 -0.42830562591552734 0.892887532711029
0.061038702726364136 0.023225795477628708 -0.02650674618780613 0.7052274346351624 0.563605546951294 -0.43011975288391113
-0.027273833751678467 0.002798808738589287 -0.036242008209228516 -0.6369314789772034 -0.30658668279647827 0.7073350548744202
0.012123513035476208 0.054644931107759476 -0.017781706526875496 -0.9982824921607971 -0.047681789845228195 0.03403628244996071
-0.009269154630601406 -0.006256908178329468 -0.03217657282948494 0.2417750060558319 0.005749226082116365 0.9703152775764465
0.03269873559474945 0.03741934522986412 0.015971649438142776 -0.8441810011863708 0.3510151207447052 0.4051504135131836
0.027511220425367355 -0.04832816123962402 -0.0466051809489727 0.14481012523174286 -0.5611497759819031 0.8149484395980835
0.06022300198674202 0.024294771254062653 -0.023477600887417793 0.4931389093399048 0.8414393663406372 -0.2208932489156723
0.01895793527364731 0.0036486778408288956 -0.04824279621243477 -0.5074008107185364 0.09749260544776917 0.8561773300170898
-0.016363926231861115 0.05644785985350609 -0.06241944059729576 0.5294743180274963 0.5342197418212891 -0.6589887738227844
-7.421150803565979e-05 -0.039817925542593 -0.08733248710632324 -0.8079745769500732 0.3320493698120117 -0.48674455285072327
-0.015331507660448551 -0.025024212896823883 -0.06316299736499786 -0.8040961623191833 -0.47451362013816833 -0.35814276337623596
0.06552901118993759 0.0010424386709928513 -0.03831995278596878 0.9319000840187073 -0.021385766565799713 -0.3620840311050415
0.05835337191820145 -0.024350732564926147 -0.06445576995611191 0.911616861820221 -0.27047204971313477 -0.309515118598938
0.013854524120688438 0.03555389866232872 -0.08107578754425049 -0.3598824441432953 -0.025063106790184975 -0.9326609373092651
0.04463652893900871 -0.02737952396273613 -0.08556128293275833 0.4899786412715912 -0.8536712527275085 0.1765398532152176
-0.036261022090911865 0.06975936889648438 -0.05167269706726074 -0.6260415315628052 0.7756514549255371 -0.08022959530353546
0.010401488281786442 -0.039355695247650146 -0.09283402562141418 -0.22141829133033752 0.08621519058942795 -0.9713603258132935
-0.00994789507240057 0.0680132508277893 -0.055166639387607574 -0.8103148341178894 0.24215377867221832 -0.533621072769165
-0.03126931190490723 0.0036600548774003983 -0.05046733841300011 -0.8791120052337646 -0.38487085700035095 -0.28113439679145813
0.0296248197555542 -0.00862843357026577 -0.027728371322155 -0.5702828764915466 -0.10255693644285202 0.8150212168693542
0.02156893163919449 0.05308227986097336 -0.0736190602183342 -0.1617320030927658 0.8014622926712036 -0.5757611989974976
0.0405614897608757 0.034935157746076584 -0.007749158889055252 -0.3629893958568573 0.6421554088592529 -0.6751852631568909
0.011981368996202946 0.05155502259731293 -0.03828299418091774 -0.9175233244895935 -0.38065049052238464 0.11513518542051315
0.03150701895356178 0.06113193929195404 -0.04122214391827583 0.6512327790260315 0.6500504612922668 -0.39157405495643616
0.0057121035642921925 0.016328487545251846 -0.04883457347750664 0.2659524381160736 0.04348137229681015 0.963005006313324
-0.030897416174411774 0.006622575223445892 -0.05582280457019806 -0.6662704348564148 -0.20837630331516266 -0.7160049080848694
-0.007951111532747746 0.07703585177659988 -0.021810272708535194 -0.35051050782203674 0.7960225343704224 -0.49344760179519653
0.01849767193198204 0.04516226798295975 -0.007092665880918503 -0.5522894263267517 -0.796726644039154 -0.24536307156085968
0.014245565049350262 -0.060006268322467804 -0.05562560260295868 -0.38334184885025024 -0.5419089794158936 0.7479195594787598
0.019253011792898178 0.04532948136329651 -0.017896408215165138 -0.15259623527526855 -0.9722853302955627 -0.1771317422389984
0.02025045081973076 0.02262973040342331 -0.04897947236895561 -0.16385342180728912 0.0077592190355062485 0.9864541888237
0.03458724915981293 0.013053180649876595 -0.030202405527234077 -0.7826941013336182 0.29317954182624817 0.5490315556526184
0.015327120199799538 -0.002742026001214981 -0.08307845890522003 -0.3098258972167969 0.17980441451072693 -0.9336371421813965
0.05877481400966644 0.012995435856282711 -0.04297173395752907 0.6070976257324219 0.6111474633216858 -0.5078693628311157
0.06417790055274963 0.020248927175998688 -0.015575233846902847 0.8371593356132507 0.5102376937866211 0.19703246653079987
0.03247695043683052 0.0015976447612047195 -0.08298686146736145 0.21686691045761108 0.03315738961100578 -0.9756379127502441
-0.04297889024019241 0.028632380068302155 -0.03780212253332138 0.17609168589115143 0.37918326258659363 0.9084116816520691
0.020981665700674057 -0.04885297268629074 -0.04471574351191521 0.1834120750427246 -0.5384771227836609 0.8224368691444397
0.05835958570241928 0.01864766702055931 0.005005933344364166 0.43191471695899963 0.007306093815714121 0.9018848538398743
0.02753448113799095 0.0633854791522026 -0.01605166867375374 0.3751645088195801 0.9068207144737244 0.19216613471508026
-0.006543048657476902 0.07542023062705994 -0.019116753712296486 -0.982216477394104 0.05169254541397095 0.18049556016921997
-0.05086830258369446 0.061569757759571075 -0.018464548513293266 0.7296899557113647 0.6160130500793457 0.29678359627723694
-0.05372680351138115 0.0519237257540226 -0.03703063353896141 0.5386683940887451 0.5896525979042053 -0.6017858386039734
0.02750786766409874 0.017384203150868416 -0.08107335865497589 0.14205166697502136 -0.09373687952756882 -0.9854109287261963
0.0033712578006088734 -0.014638684689998627 -0.03628210350871086 0.32540202140808105 0.39055392146110535 0.8611511588096619
-0.047949377447366714 0.017803387716412544 -0.04317707568407059 -0.7186936736106873 -0.5603094100952148 0.41174352169036865
0.03392886370420456 0.0409078411757946 -0.04850558936595917 0.6458293795585632 -0.5075196027755737 0.5703755617141724
0.029080696403980255 0.03313646465539932 0.01020127534866333 -0.989064633846283 -0.14746959507465363 -0.0019695444498211145
0.0031581842340528965 -0.017237558960914612 -0.07987774908542633 -0.2516275942325592 0.1553163081407547 -0.9552803039550781
-0.016105227172374725 0.024263903498649597 -0.06759858131408691 -0.6676344275474548 -0.17790783941745758 -0.7229198217391968
-0.01610548049211502 0.05991640314459801 -0.05934932827949524 0.8895506262779236 0.4428861439228058 -0.11203380674123764
0.02776525169610977 0.06418336927890778 -0.03159042447805405 0.19124791026115417 0.9750415682792664 0.11277470737695694
0.01825859025120735 0.004718039184808731 -0.08336639404296875 0.25160932540893555 0.1962888240814209 -0.9477148652076721
-0.02202661707997322 0.037289880216121674 -0.06680066883563995 -0.43372946977615356 -0.2587592899799347 -0.863088846206665
0.033763933926820755 0.0006882138550281525 -0.08250410854816437 -0.33186665177345276 0.5633085370063782 -0.7566690444946289
-0.05992274358868599 0.03165819123387337 -0.03801097720861435 -0.6870561242103577 -0.6246365904808044 0.3711913526058197
-0.024043481796979904 0.06742728501558304 -0.030026821419596672 -0.13580484688282013 -0.98956298828125 0.048188451677560806
-0.012484564445912838 0.035990629345178604 -0.06998062133789062 -0.46017685532569885 -0.20774398744106293 -0.8631799817085266
0.04160206764936447 -0.008888071402907372 -0.01913982443511486 -0.274971067905426 -0.2598412036895752 0.9256746172904968
-0.028730276972055435 0.0795527845621109 -0.04287736862897873 -0.5501097440719604 0.7920746803283691 -0.26456934213638306
0.05732301250100136 0.017603401094675064 -0.040057793259620667 0.3433891534805298 0.8732604384422302 -0.3456878364086151
0.04896154627203941 -0.03831854462623596 -0.044461533427238464 0.48963215947151184 -0.8440703749656677 0.2186448723077774
0.0007925722748041153 -0.030902616679668427 -0.08077653497457504 -0.6676449775695801 0.06959958374500275 -0.7412192821502686
-0.013848298229277134 -0.0004328843206167221 -0.032993994653224945 0.296955943107605 0.41099292039871216 0.8619176149368286
0.006810143124312162 -0.015524901449680328 -0.03857417777180672 0.32540202140808105 0.39055392146110535 0.8611511588096619
0.015982693061232567 0.019828392192721367 -0.051355719566345215 0.25526875257492065 0.10005977004766464 0.961678683757782
-0.02254999801516533 0.0801289975643158 -0.04172568768262863 0.21047168970108032 0.9127891659736633 -0.35002508759498596
-0.026740476489067078 0.03162136301398277 -0.05518699437379837 -0.9747150540351868 -0.22144024074077606 0.02991238795220852
0.05621923878788948 -0.0012830477207899094 -0.018162589520215988 0.17268550395965576 -0.2883495092391968 0.9418249726295471
-0.031214315444231033 0.003989130258560181 -0.05261951684951782 -0.9045668840408325 -0.3335059881210327 -0.2655794620513916
0.04832042381167412 0.024601206183433533 -0.041384194046258926 0.3275656998157501 0.9408212304115295 0.08692573755979538
0.04925055801868439 0.01198115199804306 -0.006594087928533554 -0.4230650067329407 -0.7550634145736694 0.5008944272994995
-0.01905190572142601 0.02314712479710579 -0.06688134372234344 -0.6154065728187561 -0.12641265988349915 -0.7780067920684814
0.002867666073143482 0.002811931073665619 -0.07996968924999237 -0.34119558334350586 -0.2648511528968811 -0.9019087553024292
-0.011240004561841488 0.0446089506149292 -0.049149271100759506 -0.003693394362926483 0.8023987412452698 0.5967768430709839
-0.018393386155366898 0.004086274653673172 -0.033437151461839676 -0.14036841690540314 -0.13832521438598633 0.9803891181945801
0.043422650545835495 -0.02272571623325348 -0.08538595587015152 0.8432706594467163 0.18385645747184753 -0.5050657987594604
-0.042297448962926865 0.03524760156869888 -0.051693663001060486 0.4483214020729065 0.7519297003746033 -0.4833318293094635
0.0311630517244339 0.04103048890829086 0.013915937393903732 -0.1448889821767807 0.03650645539164543 0.9887742400169373
0.03691200166940689 0.03855811804533005 0.007934819906949997 -0.26218345761299133 0.927390456199646 -0.26684609055519104
-0.04213324561715126 0.017414947971701622 -0.05693059042096138 -0.8724098205566406 -0.02295582741498947 -0.4882357120513916
-0.019353587180376053 0.06665752083063126 -0.058992668986320496 0.842147946357727 0.53909832239151 -0.01264338567852974
0.02249058336019516 0.051035232841968536 0.00479864701628685 -0.4119832217693329 0.16307683289051056 0.8964796662330627
0.006922118365764618 -0.030728787183761597 -0.03415469080209732 0.16619917750358582 0.17417380213737488 0.9705881476402283
0.03676500543951988 -0.034566447138786316 -0.09228860586881638 0.1456701159477234 0.36957934498786926 -0.9177098274230957
0.0272175632417202 0.039818789809942245 -0.006880074739456177 0.11223290860652924 -0.8297815918922424 -0.5466866493225098
-0.01082803774625063 0.07698039710521698 -0.009009618312120438 0.2223040759563446 0.35370275378227234 0.9085566997528076
0.03681202232837677 0.03994859755039215 0.003949269652366638 -0.742171585559845 0.6628206968307495 -0.09924715757369995
0.0012500826269388199 -0.03352741152048111 -0.07929407805204391 -0.7992711663246155 0.25988250970840454 -0.5418733358383179
0.05831260606646538 -0.018335063010454178 -0.030362568795681 0.8081380724906921 -0.19524836540222168 0.5556896328926086
-0.021020807325839996 0.0003943275660276413 -0.03318316489458084 -0.3173289895057678 -0.11250754445791245 0.9416179656982422
0.0537697970867157 -0.005926506593823433 -0.06988821178674698 0.687704861164093 0.2647319436073303 -0.6760022640228271
-0.03662998601794243 0.011090967804193497 -0.036839559674263 -0.516834557056427 -0.38500815629959106 0.7646245956420898
0.009043111465871334 -0.009992638602852821 -0.08178769052028656 -0.4914119243621826 0.421756774187088 -0.761994481086731
-0.010724696330726147 0.0710771381855011 -0.02355419285595417 0.840629518032074 -0.5402151942253113 -0.03885342925786972
0.04053614288568497 -0.0025260616093873978 -0.02071215771138668 -0.2805861532688141 0.18508872389793396 0.9418140053749084
0.04752452298998833 -0.036079708486795425 -0.08719473332166672 0.688952624797821 0.0015713738976046443 -0.7248046398162842
0.03757436200976372 -0.022676736116409302 -0.08840508759021759 0.0908772423863411 0.33705660700798035 -0.937088131904602
0.0063165463507175446 0.057321883738040924 -0.06304968893527985 0.4542118012905121 0.40426936745643616 -0.7938878536224365
-0.009091372601687908 0.05606408044695854 -0.050985753536224365 -0.8506312966346741 -0.270621657371521 0.45076635479927063
0.008904465474188328 0.07229579240083694 -0.046993255615234375 0.9604327082633972 0.23011058568954468 -0.1569015085697174
0.060914672911167145 -0.015239011496305466 -0.06289419531822205 0.8664810657501221 -0.010900221765041351 0.49909090995788574
0.025686677545309067 -0.002813439816236496 -0.08483940362930298 0.11115287989377975 0.12787683308124542 -0.9855417609214783
-0.03683263435959816 0.01101588737219572 -0.04055141657590866 -0.661848247051239 -0.6464653015136719 0.37952539324760437
0.04009862244129181 -0.024469275027513504 -0.025936035439372063 -0.06594277173280716 -0.524814784526825 0.8486583232879639
-0.011003016494214535 0.06796751916408539 -0.050228096544742584 -0.9009662866592407 -0.39174777269363403 -0.18652988970279694
0.04094936326146126 0.03975701332092285 -0.056774724274873734 0.7847462296485901 0.41089779138565063 0.4640434682369232
-0.023511577397584915 -0.017485592514276505 -0.0466943234205246 -0.8754709959030151 -0.38570109009742737 -0.29117897152900696
0.04203518107533455 0.03807913511991501 -0.05969330668449402 0.8928216695785522 0.3897230625152588 0.22579950094223022
-0.04752737656235695 0.040010105818510056 -0.04522563889622688 0.8897020816802979 0.386579304933548 -0.24287161231040955
0.0006190314888954163 0.0029832106083631516 -0.07695047557353973 -0.37733080983161926 -0.2691155970096588 -0.8861141204833984
0.047464918345212936 0.029203984886407852 -0.061049506068229675 0.8784466981887817 0.4681020975112915 -0.09597834944725037
-7.247552275657654e-05 0.04179728776216507 -0.07404351234436035 -0.48051023483276367 -0.04881575331091881 -0.8756294250488281
0.031528063118457794 0.007387381047010422 -0.03467366471886635 -0.759275496006012 0.560442328453064 0.33076438307762146
-0.06219113990664482 0.034918732941150665 -0.03422597795724869 -0.8032343983650208 -0.49394989013671875 0.3329084515571594
0.017633864656090736 -0.03541920706629753 -0.035656753927469254 0.1855512410402298 0.06794292479753494 0.9802828431129456
0.01292362343519926 -0.012661781162023544 -0.040937699377536774 0.32540202140808105 0.39055392146110535 0.8611511588096619
-0.013284862972795963 0.022679805755615234 -0.04048241674900055 0.04135678708553314 0.15991200506687164 0.9862645268440247
-0.013433274812996387 0.028855042532086372 -0.07195077836513519 -0.6299617290496826 0.051406703889369965 -0.7749229669570923
0.06337045133113861 -0.005709882825613022 -0.0319366455078125 0.8588586449623108 -0.463026762008667 0.21901598572731018
0.013163833878934383 0.08410993218421936 -0.01781364157795906 0.8193117380142212 0.5655305981636047 -0.09435781836509705
0.0554715171456337 0.014397883787751198 -0.050887033343315125 0.7217549085617065 0.6814410090446472 -0.12127652764320374
0.05168905854225159 -0.038483865559101105 -0.05746443569660187 0.6612964272499084 -0.5503318905830383 0.5097272396087646
-0.003753124736249447 0.08476288616657257 -0.04703574255108833 -0.16424442827701569 0.9145630598068237 -0.3695918917655945
0.029992222785949707 0.0558212473988533 0.002268914133310318 0.34564903378486633 0.580225944519043 0.7374717593193054
0.04391731321811676 0.024079523980617523 0.008607462048530579 0.2791808247566223 -0.21644212305545807 0.9355270862579346
0.013438805006444454 0.034741271287202835 -0.08013436198234558 -0.10155730694532394 -0.06796178966760635 -0.9925055503845215
0.016519928351044655 0.025043055415153503 -0.04850195720791817 0.26209452748298645 -0.07656911760568619 0.9619998335838318
0.022358916699886322 0.04647033289074898 -0.026267120614647865 0.18589143455028534 -0.9434166550636292 0.27460768818855286
0.001900441013276577 0.013592535629868507 -0.07895819842815399 -0.20183417201042175 0.032907504588365555 -0.9788667559623718
-0.035111017525196075 0.05903236195445061 -0.051595620810985565 -0.9333274960517883 -0.2920325696468353 0.20884619653224945
0.0576581247150898 -0.00826929695904255 -0.06726707518100739 0.4445379674434662 0.2392273098230362 -0.8632243275642395
0.05037954822182655 0.03611394762992859 0.0002909451723098755 0.602318286895752 0.793454110622406 -0.08742544054985046
-0.02806168422102928 0.05056140571832657 -0.064425989985466 -0.4213254749774933 0.032273031771183014 -0.9063351154327393
-0.03327394649386406 0.05346307530999184 -0.055091533809900284 -0.80438232421875 -0.3522213101387024 0.47844454646110535
-0.018379811197519302 0.08323617279529572 -0.02380497008562088 0.17567160725593567 0.9718694090843201 0.15687352418899536
0.06339247524738312 -0.002775859087705612 -0.045564036816358566 0.9867981672286987 0.06635946035385132 -0.14773574471473694
0.008656321093440056 0.06567065417766571 -0.04193457216024399 0.8294557332992554 -0.24090167880058289 0.5039539337158203
0.062079280614852905 -0.004065832123160362 -0.053889982402324677 0.8809833526611328 0.2494482398033142 -0.40204960107803345
0.04591886326670647 -0.02378898486495018 -0.02464781515300274 0.03609174117445946 -0.2940933108329773 0.9550949931144714
0.027693990617990494 -0.004413703456521034 -0.032726630568504333 -0.8485228419303894 0.24641287326812744 0.4682837724685669
0.05400747060775757 0.0027419663965702057 -0.014478476718068123 -0.10565288364887238 -0.636908233165741 0.7636657357215881
-0.010604423470795155 0.07669690251350403 -0.03499836102128029 0.781516969203949 0.4091961681842804 -0.4709455370903015
-0.009052424691617489 0.012745551764965057 -0.038940854370594025 0.4811282753944397 0.05712321400642395 0.8747871518135071
-0.00018387753516435623 0.007479945197701454 -0.07826351374387741 -0.3904431462287903 0.11398356407880783 -0.9135435819625854
-0.0051253680139780045 0.02356880158185959 -0.04210016131401062 0.47070613503456116 0.4670927822589874 0.7485052347183228
-0.009461657144129276 0.0024978164583444595 -0.035939909517765045 0.6216789484024048 0.4929140508174896 0.6087290644645691
-0.049489494413137436 0.05163916200399399 -0.027038343250751495 0.9598146677017212 -0.25260981917381287 0.1222461611032486
-0.03178905323147774 0.013874893076717854 -0.05885561928153038 -0.6791588068008423 0.2728275656700134 -0.6814018487930298
0.0222335048019886 0.013026272878050804 -0.0820750892162323 0.09005434066057205 -0.06802912056446075 -0.9936107397079468
0.04829857870936394 0.012949135154485703 -0.005313962697982788 -0.42693617939949036 -0.8541819453239441 0.29681429266929626
0.006917468272149563 0.04682326689362526 -0.04375120624899864 -0.28608882427215576 0.19926151633262634 0.9372555613517761
-0.005408431403338909 -0.03400490805506706 -0.037154458463191986 -0.7487838268280029 -0.3517366647720337 0.5617864727973938
0.004635663703083992 0.0809885784983635 -0.04420161992311478 0.7445229291915894 0.4845471680164337 -0.4592381417751312
-0.025387275964021683 0.06128884479403496 -0.06476178765296936 0.15322229266166687 0.2699459195137024 -0.9506061673164368
0.012973049655556679 -0.029681868851184845 -0.03489340469241142 0.30469781160354614 -0.10733046382665634 0.9463822841644287
-0.05740487948060036 0.028156818822026253 -0.03625110536813736 -0.18116731941699982 -0.7392812967300415 0.648568868637085
0.059038035571575165 -0.018179360777139664 -0.06395982950925827 0.974608302116394 -0.06685527414083481 -0.21370325982570648
0.03303856775164604 0.04646218568086624 0.009778350591659546 0.4378194212913513 0.487456351518631 0.7554472088813782
-0.015393909998238087 0.08011654019355774 -0.036318231374025345 -0.3507409989833832 0.9063801169395447 0.23549073934555054
-0.0512252151966095 0.05733068287372589 -0.028131691738963127 0.5893537998199463 0.5219574570655823 -0.6166218519210815
-0.03376932442188263 0.07421918213367462 -0.0380333811044693 -0.9803703427314758 0.12583689391613007 -0.15178608894348145
-0.05432422086596489 0.0586404986679554 -0.014925900846719742 0.2225453406572342 0.354541152715683 0.908170759677887
-0.0291929692029953 0.06935583055019379 -0.027935847640037537 -0.45902368426322937 -0.6932077407836914 0.5556620359420776
0.009770154021680355 0.02956690452992916 -0.08034864813089371 -0.20183417201042175 0.032907504588365555 -0.9788667559623718
0.03229253739118576 0.04106768220663071 0.008944787085056305 -0.12962333858013153 -0.9816610217094421 0.13978344202041626
0.010735697112977505 -0.03833422809839249 -0.03423161804676056 -0.21095728874206543 -0.35333889722824097 0.9113993048667908
-0.03735518828034401 0.01518021710216999 -0.03896758332848549 -0.4536378085613251 0.022092554718255997 0.8909122943878174
0.05363800376653671 0.01912504807114601 -0.04492010921239853 0.689341127872467 0.5571970343589783 -0.46296900510787964
-0.05234690010547638 0.049888644367456436 -0.018628651276230812 0.6444181799888611 -0.5722236633300781 0.5072330236434937
0.0076850950717926025 0.058261845260858536 -0.06306187063455582 0.537061333656311 0.3322969973087311 -0.7753346562385559
0.062096770852804184 -0.019519485533237457 -0.05147791653871536 0.8772642016410828 -0.4435029625892639 -0.18360991775989532
0.03214183822274208 0.0066526830196380615 -0.0321289524435997 -0.9486245512962341 -0.2684509754180908 0.16746807098388672
0.01837737113237381 0.06386207044124603 -0.021013937890529633 -0.374665766954422 0.9234475493431091 0.08288654685020447
0.03509797155857086 0.04262891784310341 -0.0004129260778427124 0.6615055799484253 -0.5206199288368225 -0.5397825837135315
-0.0024159420281648636 0.045893579721450806 -0.04505662992596626 -0.15711700916290283 0.45690837502479553 0.8755278587341309
0.01660194620490074 0.061851225793361664 -0.019182613119482994 -0.7821786999702454 0.5957345366477966 -0.18247398734092712
0.013336386531591415 -0.03268205747008324 -0.03426836431026459 0.41694480180740356 -0.10946053266525269 0.902316689491272
0.028931736946105957 0.036671433597803116 0.011548154056072235 -0.6866211295127869 -0.43559661507606506 0.5820713639259338
-0.007004155777394772 -0.038032129406929016 -0.07448829710483551 -0.6853804588317871 0.006909639108926058 -0.7281523942947388
-0.013121713884174824 0.05274863913655281 -0.056091226637363434 0.9963292479515076 -0.009145800955593586 -0.08511371165513992
-0.019953742623329163 0.011135461740195751 -0.03239031881093979 0.3620430827140808 0.2884896993637085 0.8863963484764099
0.018066218122839928 -0.04576347768306732 -0.03925706073641777 0.29486939311027527 -0.6721135377883911 0.6792020797729492
-0.011262045241892338 0.06962879002094269 -0.04370953142642975 -0.8037771582603455 -0.5634363889694214 0.19100208580493927
-0.031482186168432236 0.02622002549469471 -0.039476826786994934 -0.35718002915382385 0.3993142545223236 0.8443758487701416
0.059716008603572845 -0.022773735225200653 -0.05932881683111191 0.9690910577774048 -0.2294629067182541 -0.09060491621494293
0.006501947063952684 0.05227326229214668 -0.06724926829338074 0.1352171152830124 0.9239107966423035 -0.35791781544685364
-0.013058996759355068 0.03827611356973648 -0.06935003399848938 -0.17525741457939148 -0.20411865413188934 -0.963130533695221
