0.15018609166145325 0.33019471168518066 0.26902467012405396 -0.5307303071022034 0.0005457639344967902 -0.8475406169891357
-0.3658256530761719 0.3004661500453949 0.1705821007490158 -0.9998730421066284 -0.015929589048027992 -5.294558125257254e-10
0.2501251697540283 0.472578227519989 -0.1789565533399582 -0.8668338060379028 0.0009954989654943347 0.4985962510108948
0.16885676980018616 -0.2553682327270508 0.26829659938812256 -2.923949978139717e-06 0.13820604979991913 0.9904034733772278
-0.36913639307022095 0.27978619933128357 -0.17441032826900482 -0.9998731017112732 -0.01592959091067314 -5.17702158919775e-10
-0.11821690946817398 -0.049412548542022705 0.34693631529808044 0.0 -0.11425178498029709 0.9934518337249756
0.13435998558998108 0.5388876795768738 0.3579631447792053 -0.0 0.9954199194908142 0.0955992043018341
-0.07835091650485992 0.09709109365940094 0.36219537258148193 -1.041872699225621e-09 -0.04782572016119957 0.998855710029602
-0.15320095419883728 0.2126949578523636 0.36620116233825684 0.0 -0.015933046117424965 0.9998730421066284
0.19275930523872375 0.29979243874549866 -0.3764621913433075 4.0016956415200866e-10 -0.015933047980070114 -0.9998731017112732
0.15528066456317902 -0.06339985877275467 -0.24078524112701416 -0.3233436942100525 0.7961121797561646 0.5115216374397278
0.3724364638328552 0.4698188006877899 0.1452542394399643 1.0 0.0 0.0
0.3762276768684387 0.36122721433639526 0.124998539686203 1.0 -0.0 0.0
0.06612560153007507 -0.09811494499444962 -0.12841598689556122 -0.029087400063872337 0.9963518977165222 0.08022874593734741
-0.11318548768758774 -0.28449925780296326 -0.2828383445739746 0.0 0.31431344151496887 -0.9493192434310913
0.3701668977737427 0.25674310326576233 -0.18886883556842804 0.9998731017112732 -0.015929589048027992 5.17702158919775e-10
0.3136637806892395 -0.3714088797569275 0.20027558505535126 0.9212422370910645 0.38898932933807373 -1.1177988881172496e-06
0.08766920864582062 -0.45616939663887024 0.33351755142211914 1.1130698567285435e-06 -0.999980092048645 0.00630570063367486
0.0387224443256855 0.3144952654838562 -0.3776867687702179 0.0 0.0 -1.0
-0.2646419405937195 0.4267866611480713 -0.3784160017967224 -0.0 -0.0 -1.0
-0.36716794967651367 0.33770906925201416 0.16848327219486237 -1.0 0.0 -0.0
0.18326899409294128 -0.035389456897974014 -0.36290156841278076 4.104923068126709e-09 -0.11425178498029709 -0.9934517741203308
-0.15243540704250336 0.3614892065525055 0.24631622433662415 0.5306265950202942 -0.00010224173456663266 -0.8476057052612305
-0.1796673834323883 0.27931511402130127 -0.23535136878490448 0.5306272506713867 -0.00024308777938131243 0.847605288028717
0.09391873329877853 0.4776650369167328 -0.28770309686660767 -0.17126239836215973 1.944162795552984e-05 0.9852254986763
-0.330018013715744 -0.12258089333772659 -0.05195219814777374 -0.9525742530822754 -0.30430635809898376 5.8230709143458625e-09
-0.044189512729644775 -0.4562653601169586 0.24045242369174957 0.0 -1.0 0.0
0.23162667453289032 0.2573592960834503 -0.20239593088626862 -0.8669441938400269 0.0010098316706717014 0.49840420484542847
-0.14134694635868073 -0.28912168741226196 0.27479180693626404 7.499099119456787e-09 0.31431448459625244 0.9493189454078674
0.24791766703128815 -0.009413136169314384 -0.16101689636707306 -0.867097020149231 0.001006496837362647 0.49813827872276306
0.14321818947792053 -0.45286062359809875 0.13852016627788544 -0.0 -1.0 0.0
-0.18132658302783966 -0.4120819568634033 -0.33714738488197327 4.899377348266398e-09 0.4236829876899719 -0.905810534954071
-0.351177841424942 -0.04657706245779991 0.08716270327568054 -0.9934515357017517 -0.11425433307886124 -9.357509211938009e-10
0.3770567774772644 0.45721545815467834 -0.22761474549770355 1.0 0.0 0.0
-0.24585938453674316 0.25391119718551636 0.1439485102891922 0.866944432258606 -5.6538323406130075e-05 -0.49840492010116577
0.1442795991897583 0.5236193537712097 0.2714043855667114 -0.5276939868927002 0.10232728719711304 -0.8432486057281494
-0.3231180012226105 -0.4516823887825012 0.06663636863231659 -0.005183458793908358 -0.9999865889549255 -2.0915763912499052e-11
0.13333608210086823 0.3461412489414215 -0.28295111656188965 -0.5307308435440063 0.00040515686850994825 0.8475403189659119
0.29681748151779175 0.32236799597740173 0.02893715538084507 -0.9874778985977173 0.0014203388709574938 -0.15775112807750702
0.17303793132305145 -0.04144692048430443 -0.35804522037506104 4.104923068126709e-09 -0.11425178498029709 -0.9934517741203308
-0.15974456071853638 0.3511373996734619 0.3631174564361572 0.0 0.0 1.0
-0.32115471363067627 0.23122309148311615 0.36343932151794434 -0.017165830358862877 -0.01614178903400898 0.9997223615646362
0.2969518005847931 -0.044731974601745605 -0.045823462307453156 -0.9647995233535767 0.21235328912734985 0.15513865649700165
-0.011080550961196423 0.526695966720581 0.30338165163993835 0.16084083914756775 0.09572400897741318 -0.9823274612426758
0.2160501480102539 -0.3810516595840454 0.3089740574359894 -0.0 0.4236791729927063 0.9058123826980591
-0.2668619751930237 -0.4573448598384857 -0.33288779854774475 -0.0 -0.9999873638153076 -0.005016091745346785
0.346547394990921 -0.45586538314819336 0.2802485227584839 0.04130453243851662 -0.9991465210914612 0.0
-0.03552835434675217 -0.09263121336698532 -0.20876763761043549 0.05014654994010925 0.9782204031944275 0.20142045617103577
-0.2329099327325821 -0.1304045170545578 -0.3422987759113312 -6.310690192634638e-09 -0.3043059706687927 -0.9525743722915649
0.24502533674240112 -0.2824384272098541 0.2721431255340576 0.06997790187597275 0.3305431604385376 0.9411929845809937
-0.298883855342865 -0.346194326877594 -0.05367449298501015 -0.9212324023246765 0.3890126943588257 2.421731926105508e-09
0.16671927273273468 -0.4511108994483948 -0.32133668661117554 1.417537875275654e-11 -0.9999874830245972 -0.005016092211008072
-0.2220746874809265 -0.35977011919021606 -0.30678319931030273 0.0 0.38899773359298706 -0.9212386608123779
0.3421463966369629 0.4676050543785095 0.3651435673236847 0.25524136424064636 1.496476942364211e-09 0.9668774008750916
0.06691795587539673 0.43090108036994934 -0.29245877265930176 -0.17128445208072662 1.8652812286745757e-05 0.9852216839790344
0.3616734743118286 0.008908013813197613 0.09799862653017044 0.9934515357017517 -0.11425432562828064 0.0
-0.2741844356060028 -0.2816179692745209 0.10399574786424637 -0.9904043674468994 0.1381997913122177 -8.603094348025309e-10
0.3320801258087158 -0.12821193039417267 -0.16980446875095367 0.9525741934776306 -0.30430635809898376 0.0
-0.28222522139549255 -0.2056547999382019 0.06303192675113678 -0.7501309514045715 -0.6612893342971802 -9.402482126219525e-10
-0.31913721561431885 0.23412665724754333 -0.3747449219226837 -0.026880867779254913 -0.01625898666679859 -0.999506413936615
-0.06711612641811371 0.5068723559379578 -0.28164416551589966 0.17097391188144684 0.05802948400378227 0.9835652112960815
0.20711331069469452 -0.45359474420547485 -0.14991798996925354 0.0 -1.0 0.0
0.2130570262670517 0.5475406050682068 0.3290287256240845 -0.0022496432065963745 0.9999650716781616 -0.008052794262766838
-0.2495022863149643 0.4950920641422272 -0.37717199325561523 -0.0 -0.0 -1.0
0.33993959426879883 -0.11709702759981155 0.1833774894475937 0.9525742530822754 -0.30430638790130615 -6.4922227593910975e-09
0.0571666918694973 0.34387925267219543 0.2967478334903717 -0.17132382094860077 0.00018408632604405284 -0.9852148294448853
-0.364554762840271 0.1857350468635559 -0.04356446489691734 -0.9998731017112732 -0.01592959277331829 -4.475873283116272e-10
-0.23838812112808228 -0.45816484093666077 -0.0484120212495327 0.0 -1.0 0.0
0.2996089458465576 -0.43751266598701477 0.3361542522907257 0.06777077168226242 0.4054885804653168 0.9115843772888184
0.2711217701435089 -0.07153288275003433 0.023436613380908966 -0.6490644216537476 0.7522962093353271 -0.11298603564500809
-0.2677617371082306 0.19782710075378418 -0.08352787047624588 0.9874871969223022 -0.0001113684629672207 0.15769918262958527
0.369500994682312 0.1093115285038948 -0.31828197836875916 0.9981186985969543 -0.049134258180856705 -0.036672212183475494
0.04434310272336006 0.09150942414999008 -0.36673060059547424 1.0331682176456525e-09 -0.04782572016119957 -0.998855710029602
-0.2769945561885834 0.44521164894104004 0.004111898131668568 0.9874808192253113 -3.6564040783559904e-05 -0.15773943066596985
-0.2739664912223816 -0.2767372727394104 0.09181522578001022 -0.949320912361145 0.31430864334106445 -4.909853146273235e-07
0.34872332215309143 0.35655441880226135 0.36278071999549866 0.25524136424064636 -0.0 0.9668774008750916
-0.2692771553993225 0.45171087980270386 -0.05994638055562973 0.9874764084815979 -0.00010081943037221208 0.15776672959327698
-0.10146083682775497 0.0540928989648819 -0.2814672589302063 0.17146049439907074 -0.00023279986635316163 0.9851909875869751
-0.11764514446258545 0.013281862251460552 -0.36571139097213745 3.6156388993902056e-09 -0.11425178498029709 -0.9934518337249756
-0.2012764811515808 0.5453201532363892 -0.25414973497390747 0.024915162473917007 0.9980998635292053 0.05635455250740051
-0.1659606248140335 -0.45485198497772217 0.29226183891296387 1.2051667823420598e-11 -0.9999994039535522 0.0010055776219815016
0.0031451545655727386 0.4238464832305908 0.30558478832244873 0.1712849736213684 -0.00012220311327837408 -0.9852215051651001
-0.1796240359544754 -0.002746597398072481 0.34902650117874146 -4.225712224581457e-09 -0.11425177752971649 0.9934518337249756
-0.01516532152891159 0.012521605007350445 0.29278257489204407 0.17146074771881104 -0.00012066998169757426 -0.9851909875869751
-0.27534615993499756 0.17662949860095978 0.03056669607758522 0.9874953031539917 -2.7286016120342538e-05 -0.15764819085597992
-0.22475557029247284 0.07957907766103745 -0.3698805570602417 1.8111520061481201e-09 -0.04782571643590927 -0.9988556504249573
-0.36235323548316956 0.10300452262163162 0.23151428997516632 -0.9988556504249573 -0.047826800495386124 -1.6576295891468362e-09
-0.348032683134079 0.4483965039253235 -0.3717595934867859 -0.5100606679916382 -1.3381499242015593e-09 -0.8601384162902832
-0.159318208694458 -0.31983792781829834 0.28819596767425537 -6.19485604147485e-07 0.31431370973587036 0.9493191838264465
0.15813970565795898 -0.45314478874206543 0.1432458907365799 -0.0 -1.0 0.0
0.36993831396102905 0.40283364057540894 -0.10528076440095901 1.0 0.0 -0.0
0.10357605665922165 -0.4551696479320526 -0.05124417692422867 0.0 -1.0 0.0
0.07209908217191696 0.10359236598014832 0.29336681962013245 -0.1714196652173996 0.00018091265519615263 -0.9851980805397034
0.2756555378437042 0.2766869068145752 0.12593920528888702 -0.8668885231018066 0.001213651616126299 -0.49850061535835266
0.01588789001107216 0.5447971224784851 -0.3423696458339691 -0.0004936913028359413 0.9997415542602539 0.022730885073542595
-0.09631085395812988 0.49995577335357666 0.3645791709423065 -0.0 0.0 1.0
-0.36444851756095886 0.1723131537437439 -0.05478934571146965 -0.998855710029602 -0.047826800495386124 -0.0
-0.050200205296278 0.17831356823444366 0.2947234511375427 0.1714196801185608 -6.780036346754059e-05 -0.9851980805397034
-0.36238986253738403 0.21858692169189453 -0.2843174636363983 -0.9995405077934265 -0.01623702608048916 -0.025597114115953445
0.17542937397956848 0.2592315971851349 -0.2515100836753845 -0.5307308435440063 0.00040515686850994825 0.8475403189659119
0.011512337252497673 0.34774157404899597 -0.3743740916252136 0.0 0.0 -1.0
-0.3087126314640045 -0.368488609790802 -0.22965365648269653 -0.9212324023246765 0.38901272416114807 4.2341730122075205e-09
0.21389365196228027 -0.34435248374938965 -0.31605827808380127 -1.6767687682772703e-08 0.38899773359298706 -0.9212387800216675
-0.02920387126505375 0.5468401312828064 0.3170818090438843 0.013171925209462643 0.9917844533920288 -0.1272403597831726
0.33659064769744873 -0.11288335919380188 -0.06916704773902893 0.9525742530822754 -0.30430635809898376 0.0
0.2422388195991516 0.5334703922271729 0.20669685304164886 -0.5953569412231445 0.7385185956954956 -0.3164495825767517
0.36763307452201843 0.0725879967212677 -0.05129960924386978 0.9988556504249573 -0.047826796770095825 8.953715546766716e-10
-0.36663582921028137 0.12907138466835022 0.2668783962726593 -0.9988556504249573 -0.047826800495386124 -0.0
0.22066517174243927 -0.4539114236831665 -0.08546942472457886 -0.0 -1.0 -0.0
-0.2698860168457031 -0.24887894093990326 0.1438142955303192 -0.9904043674468994 0.1381997913122177 -8.603094348025309e-10
-0.31036412715911865 -0.16481134295463562 0.024305865168571472 -0.8431951403617859 -0.5376075506210327 0.0
0.13033728301525116 0.265627384185791 0.2741871476173401 -0.5307303071022034 0.0005457639344967902 -0.8475406169891357
-0.14897063374519348 0.03319086134433746 -0.2511548399925232 0.5309321880340576 -0.00037123324000276625 0.8474141955375671
-0.1774885505437851 -0.12748366594314575 0.32582521438598633 -6.040788758099325e-09 -0.30430448055267334 0.9525747895240784
0.2924223840236664 0.09694734215736389 -0.04361894354224205 -0.9874943494796753 0.0013805193593725562 0.1576482206583023
-0.33670729398727417 0.5501623153686523 -0.11476074159145355 -0.011978973634541035 0.9999282956123352 -3.901204763678834e-05
-0.3163786232471466 0.1530131995677948 0.3626735210418701 -0.017145315185189247 -0.048453304916620255 0.9986782670021057
0.3712781071662903 0.4854346513748169 0.13347066938877106 1.0 0.0 0.0
0.04194530472159386 -0.4535733759403229 0.14953769743442535 -0.0 -1.0 -0.0
-0.1459284871816635 -0.1966809630393982 -0.3084222376346588 0.0 -0.6613000631332397 -0.7501214742660522
0.03803427517414093 -0.4584442973136902 -0.32917699217796326 1.2381859426646713e-11 -0.9999874234199524 -0.005016091745346785
0.05404382944107056 0.08599972724914551 0.36396604776382446 0.0 -0.04782571643590927 0.9988556504249573
-0.3357733190059662 -0.45759278535842896 0.05134066939353943 -0.021140573546290398 -0.9997765421867371 -0.0
0.30864813923835754 -0.4552513659000397 -0.3182491660118103 0.00414270767942071 -0.9999786019325256 -0.005076979286968708
-0.03518391773104668 -0.053094323724508286 0.28597182035446167 0.16858451068401337 0.2194042205810547 -0.9609584808349609
0.2812904417514801 -0.21533961594104767 -0.09518766403198242 0.914007306098938 -0.4056977331638336 0.0
-0.3629666268825531 0.11305414140224457 -0.30438491702079773 -0.9984837174415588 -0.04874776303768158 -0.025570834055542946
0.19426612555980682 -0.4459959864616394 0.21626639366149902 0.0 -1.0 0.0
-0.36568719148635864 0.3308674395084381 0.0039544240571558475 -1.0 -0.0 -0.0
0.25670695304870605 -0.4507349729537964 -0.21694986522197723 0.0008331064018420875 -0.9999997019767761 1.3748282894077146e-11
-0.1277216225862503 -0.10009658336639404 0.10178729891777039 0.08945060521364212 0.9916914701461792 -0.09244799613952637
-0.3682698905467987 0.23297081887722015 -0.07969940453767776 -0.9998731017112732 -0.015929589048027992 -0.0
-0.27939891815185547 0.5468273162841797 0.1491348296403885 0.05614124611020088 0.9981622695922852 -0.022807015106081963
0.2661246657371521 0.31715360283851624 0.14321759343147278 -0.8668885231018066 0.001213651616126299 -0.49850061535835266
-0.2351401150226593 -0.4577997922897339 0.3000091016292572 -1.951242666109465e-06 -0.999999463558197 0.0010089190909639
0.3686690628528595 0.5343752503395081 0.04024409502744675 0.980553925037384 0.19624821841716766 0.0007316743140108883
-0.08155849575996399 -0.1747639775276184 0.3106588125228882 -1.0178484899370233e-06 -0.5376124382019043 0.8431921005249023
0.12366846203804016 0.22646775841712952 0.2827526032924652 -0.17137140035629272 0.00018295928020961583 -0.9852064847946167
-0.004034787882119417 -0.09803067892789841 -0.18701528012752533 0.03152307868003845 0.9965004920959473 0.07741359621286392
0.2639417350292206 -0.04439915716648102 -0.13165584206581116 -0.8448151350021362 0.22210052609443665 0.48678410053253174
-0.3678763210773468 0.3515710234642029 0.15102602541446686 -1.0 0.0 0.0
0.07767005264759064 0.013919689692556858 -0.36412766575813293 0.0 -0.11425177752971649 -0.9934518337249756
-0.266055166721344 0.03038184717297554 -0.11286214739084244 0.9875015616416931 -0.0001069906065822579 0.15760912001132965
-0.34232422709465027 -0.4546666443347931 0.004103572107851505 -0.9330728054046631 0.3596876263618469 -1.1503961117043104e-09
-0.15864969789981842 -0.45706114172935486 0.18445666134357452 -0.0 -1.0 -0.0
0.1951916664838791 -0.45402538776397705 0.20124728977680206 -0.0 -1.0 -0.0
0.2139039933681488 -0.42609044909477234 0.3361521363258362 7.853724781625715e-09 0.423684686422348 0.905809760093689
0.2566618025302887 -0.3559291660785675 -0.3111400008201599 0.02163589559495449 0.3944747745990753 -0.9186519980430603
0.29609256982803345 -0.31746673583984375 0.07466702908277512 0.949320912361145 0.31430864334106445 -4.909853146273235e-07
0.018026020377874374 -0.07963915169239044 0.27189457416534424 -0.120148666203022 0.7651047706604004 -0.6325969696044922
0.020041286945343018 0.08077879250049591 -0.3745901584625244 1.0331682176456525e-09 -0.04782572016119957 -0.998855710029602
-0.16440816223621368 -0.09369280934333801 -0.34611934423446655 0.0 -0.3043059706687927 -0.9525743126869202
0.20408852398395538 0.391998827457428 0.3591914772987366 0.0 0.0 1.0
0.2700884938240051 -0.23381097614765167 0.2652084529399872 0.5063872337341309 -0.5162984132766724 0.6906574964523315
-0.034487269818782806 -0.42952555418014526 -0.34468886256217957 0.0 0.4236810505390167 -0.9058114886283875
0.06296451389789581 0.4111360013484955 0.2944982051849365 -0.17128494381904602 0.0001818073506001383 -0.9852215647697449
-0.029726583510637283 0.4995967745780945 0.37151649594306946 0.0 0.019140269607305527 0.9998168349266052
-0.2656692564487457 -0.2552136778831482 0.15509077906608582 -0.9904043674468994 0.1381997913122177 -8.603094348025309e-10
0.15981721878051758 -0.4543517827987671 -0.28339719772338867 -1.1368479942153176e-11 -0.9999996423721313 -0.0008951270137913525
0.37568047642707825 0.44179847836494446 0.2924937605857849 0.9991497993469238 3.0008145968096755e-10 0.041227858513593674
-0.04663892090320587 -0.4541982114315033 -0.07352644950151443 -0.0 -1.0 0.0
0.3693690598011017 0.07144048064947128 -0.05713021755218506 0.9988556504249573 -0.047826796770095825 8.953715546766716e-10
0.04353916645050049 -0.09837598353624344 0.06050873547792435 -0.024605099111795425 0.999461829662323 -0.021692901849746704
-0.2412147969007492 0.2599483132362366 -0.36871811747550964 6.127400808964012e-10 -0.015933046117424965 -0.9998730421066284
0.02813960611820221 -0.3900263011455536 0.3203113377094269 -1.0890307544642042e-09 0.4236791729927063 0.9058123826980591
-0.2692178785800934 -0.10587316006422043 -0.33890610933303833 -0.02555830031633377 -0.3099433183670044 -0.9504114389419556
-0.2956674098968506 -0.3406972587108612 -0.04613108932971954 -0.9212319254875183 0.38901370763778687 6.038183073542314e-07
-0.02425142005085945 -0.1067386195063591 0.020284906029701233 0.02266155742108822 0.9994656443595886 -0.023555312305688858
-0.3579302430152893 0.07026972621679306 -0.28933271765708923 -0.9984837174415588 -0.04874776303768158 -0.025570834055542946
0.36989229917526245 0.20455797016620636 -0.00791482999920845 0.9998731017112732 -0.01592959091067314 0.0
0.2453932762145996 -0.08277099579572678 0.019077008590102196 -0.21796400845050812 0.9749244451522827 -0.044879112392663956
0.23714351654052734 0.5361945033073425 -0.3701989948749542 0.0022638291120529175 0.20540037751197815 -0.9786754250526428
-0.3659825921058655 0.3778277039527893 0.21813184022903442 -1.0 0.0 -0.0
0.30826643109321594 -0.3652222752571106 0.2153797149658203 0.9212425947189331 0.38898858428001404 1.6996242635514136e-08
-0.19546397030353546 0.09727885574102402 0.3550513982772827 -1.1958634082986919e-09 -0.04782571643590927 0.998855710029602
0.3668400049209595 0.5423664450645447 -0.20753465592861176 0.9763893485069275 0.21600325405597687 -0.00252829329110682
0.353019654750824 -0.4463048279285431 0.029934659600257874 0.8851568102836609 -0.46529290080070496 0.0
0.2917912006378174 0.4760786294937134 -0.04147937521338463 -0.9874695539474487 0.0013881686609238386 0.1578036993741989
0.35953450202941895 0.01782115548849106 -0.21758590638637543 0.9934515357017517 -0.11425432562828064 0.0
0.04593462496995926 -0.32690343260765076 0.2970534563064575 -6.460653594331234e-07 0.3889997601509094 0.9212378263473511
0.013955225236713886 0.44578424096107483 0.2983686327934265 0.1712849736213684 -0.00012220311327837408 -0.9852215051651001
0.09900599718093872 -0.45468202233314514 -0.09277401864528656 0.0 -1.0 0.0
0.1115516796708107 0.11693954467773438 0.3622918426990509 -1.1828634738364485e-09 -0.04782572016119957 0.9988557696342468
-0.23725862801074982 0.5445066690444946 0.20868127048015594 0.05614124611020088 0.9981622695922852 -0.022807015106081963
-0.25549033284187317 0.5486793518066406 0.3468501567840576 0.0001809655805118382 0.9998605251312256 0.016705801710486412
0.27439942955970764 -0.22759556770324707 -0.0969429761171341 0.914007306098938 -0.4056977331638336 0.0
0.292460173368454 0.3425235152244568 -0.049342360347509384 -0.9874778985977173 0.0013941754586994648 0.15775087475776672
0.18298034369945526 0.242438405752182 -0.24699848890304565 -0.5307307839393616 0.0005358886555768549 0.8475402593612671
-0.18851010501384735 0.15550167858600616 -0.2252005785703659 0.5308347940444946 -0.00024096682318486273 0.8474752306938171
0.2134718894958496 -0.08779895305633545 -0.09012162685394287 -0.20997951924800873 0.9765313267707825 0.047908034175634384
-0.3565913736820221 0.29132694005966187 0.3567565381526947 -0.7245319485664368 -0.021983705461025238 0.6888905763626099
0.1907079964876175 0.23890139162540436 -0.2437887042760849 -0.5307307839393616 0.0005358886555768549 0.8475402593612671
-0.04002481326460838 0.5058633089065552 0.362650603055954 0.0 0.019140269607305527 0.9998168349266052
-0.09589828550815582 0.232005774974823 0.28478989005088806 0.1714196801185608 -6.780036346754059e-05 -0.9851980805397034
-0.1410903036594391 0.04733649268746376 0.2574717700481415 0.5309320688247681 -0.00022923581127543002 -0.8474143743515015
-0.055995356291532516 0.20968998968601227 -0.29571235179901123 0.1713700294494629 -0.0002830664743669331 0.9852067232131958
-0.09445460140705109 -0.06736043840646744 -0.2652338445186615 0.3398088216781616 0.7818320393562317 0.5227510333061218
0.2579616904258728 -0.038098156452178955 -0.14465878903865814 -0.8448151350021362 0.22210052609443665 0.48678410053253174
-0.2442018836736679 -0.07055596262216568 0.10513951629400253 0.6337987184524536 0.7665734887123108 -0.10326745361089706
-0.09973850101232529 0.04450073838233948 -0.2840215265750885 0.17146049439907074 -0.0002303601213498041 0.9851909875869751
-0.3272804319858551 -0.4551965892314911 -0.3390909731388092 -0.02576567232608795 -0.9993757605552673 -0.024169297888875008
-0.3532558083534241 0.04878247156739235 0.34767475724220276 -0.7230446934700012 -0.06592584401369095 0.687648355960846
0.036023613065481186 0.5017020106315613 0.29887691140174866 -0.17126065492630005 0.00018391117919236422 -0.9852257966995239
0.3734371066093445 0.5136570334434509 -0.0803980603814125 0.9997005462646484 0.024470549076795578 -0.0001825212239054963
-0.1566845327615738 0.13820315897464752 0.2508033514022827 0.5308358669281006 -0.00010227038728771731 -0.8474746346473694
-0.058378592133522034 -0.32760247588157654 -0.29879873991012573 6.449115517170867e-07 0.38899874687194824 -0.9212383031845093
-0.36176997423171997 0.1636330634355545 0.31686463952064514 -0.9983896017074585 -0.048922374844551086 0.02872098982334137
0.22927285730838776 0.3941541016101837 -0.20792414247989655 -0.8668885231018066 0.0010015646694228053 0.49850112199783325
-0.04274866357445717 -0.09297609329223633 -0.3501380980014801 0.0 -0.3043059706687927 -0.9525743126869202
-0.2759549617767334 0.11502417922019958 0.039611782878637314 0.9874953031539917 -3.27679117617663e-05 -0.1576482057571411
-0.16638274490833282 -0.005481562111526728 0.355226069688797 -4.225712224581457e-09 -0.11425177752971649 0.9934518337249756
-0.06832648068666458 0.13613376021385193 0.2923591434955597 0.1714196652173996 -0.00012024933676002547 -0.9851981401443481
-0.3673112094402313 0.3610270023345947 0.06501094251871109 -1.0 -0.0 -0.0
0.22116248309612274 -0.44956839084625244 -0.1635877788066864 0.0 -1.0 0.0
0.27832305431365967 0.10214713960886002 0.11014644056558609 -0.9874987602233887 0.0013706829631701112 -0.15762047469615936
0.24316094815731049 0.36819228529930115 0.18946966528892517 -0.8668886423110962 0.0010835389839485288 -0.49850064516067505
-0.35648486018180847 0.030766675248742104 -0.19744321703910828 -0.9934515357017517 -0.11425433307886124 -1.081869815955372e-09
0.1975306272506714 -0.21863362193107605 -0.2837246358394623 0.0 -0.4057270288467407 -0.913994312286377
-0.10456628352403641 0.44135501980781555 0.2830760180950165 0.5305311679840088 -0.0002391809393884614 -0.8476653099060059
0.012615681625902653 -0.3758945167064667 0.30958330631256104 -1.0890307544642042e-09 0.4236791729927063 0.9058123826980591
0.37427401542663574 0.39740225672721863 -0.2730359733104706 1.0 0.0 -0.0
-0.29652661085128784 -0.17309704422950745 0.3091934025287628 -0.2758806347846985 -0.6268041133880615 0.7287018895149231
0.006335224490612745 -0.45420393347740173 -0.3122156262397766 1.2381859426646713e-11 -0.9999874234199524 -0.005016091745346785
-0.048793502151966095 -0.45313140749931335 -0.287149578332901 -1.0013450138512958e-11 -0.9999995827674866 -0.0008951269555836916
-0.36314526200294495 0.27484187483787537 -0.3155936300754547 -0.9995407462120056 -0.016240468248724937 -0.02558537758886814
0.3709031641483307 0.40096044540405273 0.04904686287045479 1.0 -0.0 0.0
0.18439622223377228 0.519193172454834 0.24655254185199738 -0.5154107213020325 0.1460770070552826 -0.8444011211395264
-0.12376291304826736 0.43082284927368164 0.2662508189678192 0.5305311679840088 -0.0002391809393884614 -0.8476653099060059
-0.22930064797401428 0.4884305000305176 0.3636038303375244 -0.0 0.0 1.0
0.23541592061519623 0.014761466532945633 -0.19661614298820496 -0.867097020149231 0.001006496837362647 0.49813827872276306
-0.20564152300357819 -0.07790382206439972 -0.14388017356395721 0.5418668985366821 0.7759986519813538 0.32281002402305603
-0.3632257580757141 0.47732090950012207 0.2639869153499603 -1.0 0.0 0.0
0.3604884147644043 0.0288726594299078 0.3483422100543976 0.5842472314834595 -0.15431031584739685 0.7967706918716431
0.28053998947143555 0.4004921317100525 0.12133512645959854 -0.9874736070632935 0.001377359963953495 -0.15777789056301117
0.3716174066066742 0.5064546465873718 0.3146681487560272 0.9986395835876465 0.031953394412994385 0.041206806898117065
-0.2764933407306671 -0.2895967960357666 -0.13624276220798492 -0.949320912361145 0.31430870294570923 3.6833147643022812e-09
0.37562844157218933 0.49469825625419617 0.27360811829566956 0.999562680721283 0.0295703187584877 5.08180719727136e-10
-0.143370121717453 0.5429767370223999 -0.3111385107040405 0.006998337805271149 0.9989013671875 0.04633629694581032
-0.2520258128643036 0.0869753286242485 0.13068795204162598 0.8670606017112732 -5.4898580856388435e-05 -0.4982028007507324
-0.09509065002202988 0.1453048288822174 0.36497756838798523 0.0 -0.04782572016119957 0.998855710029602
-0.31657254695892334 0.07429313659667969 -0.36390209197998047 -0.026852302253246307 -0.048802848905324936 -0.9984474182128906
-0.01818712241947651 -0.10512936860322952 0.1345532387495041 0.029088540002703667 0.9963517785072327 -0.08023078739643097
-0.3467302620410919 -0.0688934326171875 -0.1229858323931694 -0.9934515357017517 -0.11425433307886124 0.0
0.19826902449131012 0.542738676071167 -0.2781064808368683 -0.02592066116631031 0.9979004859924316 0.05935328081250191
0.36693593859672546 0.4423457086086273 -0.03164420276880264 1.0 0.0 0.0
0.0880328044295311 -0.08803343772888184 0.2230338156223297 -0.05014165863394737 0.9782253503799438 -0.20139774680137634
0.0665092021226883 0.031221522018313408 0.2958203852176666 -0.17146088182926178 0.00018611732230056077 -0.9851909279823303
0.3662671148777008 0.06410613656044006 -0.08949848264455795 0.998855710029602 -0.047826800495386124 0.0
0.3691587448120117 0.07846074551343918 -0.2508746385574341 0.9988556504249573 -0.047826796770095825 1.565477414366967e-09
-0.14988557994365692 -0.45794612169265747 0.13805033266544342 -0.0 -1.0 -0.0
0.2768259048461914 0.056533247232437134 0.3543902039527893 0.015016612596809864 -0.04833602532744408 0.99871826171875
0.3428029417991638 -0.06545017659664154 0.3361012637615204 0.5841774940490723 -0.15431641042232513 0.7968205809593201
0.06727916747331619 -0.4527072608470917 -0.15963394939899445 0.0 -1.0 -0.0
-0.20671285688877106 -0.0732092559337616 0.3431224226951599 -4.225712224581457e-09 -0.11425177752971649 0.9934518337249756
0.3256879150867462 -0.45701977610588074 0.08380962163209915 0.014695007354021072 -0.9998920559883118 -5.190540011690281e-11
-0.24923643469810486 -0.45237502455711365 -0.19652679562568665 0.0 -1.0 0.0
-0.01160710584372282 0.3308764696121216 0.30006614327430725 0.17132389545440674 -0.00012006473116343841 -0.9852147102355957
-0.1457362174987793 0.2683524191379547 0.2583398222923279 0.530730664730072 -0.0002329523558728397 -0.8475404977798462
0.35095328092575073 -0.046385642141103745 0.18101215362548828 0.9934514760971069 -0.11425432562828064 0.0
-0.2520754635334015 0.31303390860557556 0.13090984523296356 0.866944432258606 -5.819260695716366e-05 -0.4984048902988434
-0.3266449272632599 0.4037381410598755 -0.3762793242931366 -0.14488853514194489 -9.652514343372331e-10 -0.9894479513168335
0.36360684037208557 0.031332239508628845 -0.20994697511196136 0.9934515357017517 -0.11425433307886124 1.081869815955372e-09
0.28634950518608093 0.548028290271759 -0.1655908077955246 -0.06267047673463821 0.9976948499679565 0.026025239378213882
-0.1620473563671112 -0.1856275349855423 0.2985968291759491 1.9291746866656467e-06 -0.5376119613647461 0.8431923985481262
0.3707491159439087 0.14670273661613464 0.1598276048898697 0.9988556504249573 -0.047826800495386124 1.0463879762667716e-09
0.035677555948495865 -0.4535539150238037 -0.11928371340036392 0.0 -1.0 0.0
-0.3059961795806885 -0.35617244243621826 0.12310360372066498 -0.9212323427200317 0.38901275396347046 7.185237222984142e-07
0.14724260568618774 0.2683895528316498 0.36170634627342224 -4.0016956415200866e-10 -0.015933047980070114 0.9998731017112732
0.1485985517501831 0.06668707728385925 0.3634859621524811 -1.1828634738364485e-09 -0.04782572016119957 0.9988557696342468
-0.0030342789832502604 -0.2554517686367035 0.2725818455219269 -1.7897380075737601e-06 0.13820627331733704 0.990403413772583
-0.0387793704867363 0.02734394185245037 0.2907257378101349 0.17146074771881104 -0.00012066998169757426 -0.9851909875869751
-0.0573531799018383 0.34794288873672485 0.29489126801490784 0.17132389545440674 -0.00012006473116343841 -0.9852147102355957
-0.27770039439201355 -0.22371144592761993 0.1246911957859993 -0.9139863848686218 -0.4057449400424957 0.0
-0.14295873045921326 -0.4485774040222168 0.2689323127269745 0.0 -1.0 0.0
-0.36659151315689087 0.28476545214653015 0.0011523867724463344 -0.9998731017112732 -0.01592959277331829 -4.475873283116272e-10
-0.07839639484882355 -0.44564348459243774 -0.35395926237106323 -0.0 -0.21185728907585144 -0.9773005843162537
0.32562774419784546 -0.45337632298469543 0.02418660745024681 0.014695007354021072 -0.9998920559883118 -5.190540011690281e-11
0.1723138839006424 -0.2166261225938797 -0.28377991914749146 0.0 -0.4057270288467407 -0.913994312286377
0.037450194358825684 -0.04484628885984421 0.3466663658618927 0.0 -0.11425178498029709 0.9934518337249756
-0.08016755431890488 -0.09923044592142105 0.04352794587612152 0.02266155742108822 0.9994656443595886 -0.023555312305688858
0.36394768953323364 0.5083430409431458 0.00999925285577774 0.9997155666351318 0.023849913850426674 0.00018367974553257227
-0.26746779680252075 0.044809192419052124 -0.07363565266132355 0.9875015616416931 -0.00010964591638185084 0.15760913491249084
-0.36690932512283325 0.17442654073238373 0.017848189920186996 -0.9988556504249573 -0.047826800495386124 -0.0
-0.3633922040462494 0.43478676676750183 -0.02425706386566162 -1.0 0.0 0.0
-0.17709192633628845 -0.08814098685979843 0.03519739583134651 0.08084919303655624 0.9962696433067322 -0.03017052821815014
0.3676846921443939 0.49017012119293213 0.35499536991119385 0.5912904739379883 0.0 0.8064587116241455
0.3734225630760193 0.41816291213035583 -0.17328330874443054 1.0 -0.0 0.0
0.35811758041381836 -0.0015836257953196764 0.05201440677046776 0.9934515357017517 -0.11425432562828064 0.0
0.11147903650999069 0.046366993337869644 0.278157114982605 -0.17146088182926178 0.00018611732230056077 -0.9851909279823303
0.16298052668571472 0.544030487537384 0.2887899875640869 -0.025221457704901695 0.9979310035705566 -0.059140827506780624
0.11526084691286087 -0.1345745027065277 0.3292493522167206 -6.263023433206172e-09 -0.30430448055267334 0.9525747895240784
0.26212987303733826 -0.11658860743045807 -0.34658724069595337 0.022394420579075813 -0.3088930547237396 -0.9508331418037415
-0.28309398889541626 -0.31020501255989075 0.07735681533813477 -0.949320912361145 0.31430864334106445 -4.909853146273235e-07
0.2863295376300812 -0.4550987482070923 0.09586124122142792 0.0008331064018420875 -0.9999996423721313 0.0
-0.23248133063316345 -0.45463940501213074 -0.23062363266944885 -0.0 -1.0 0.0
-0.23704075813293457 0.5474744439125061 -0.3343181908130646 0.0010417505400255322 0.9999773502349854 0.0066445027478039265
0.33473825454711914 0.05440233647823334 0.3505055606365204 0.25480595231056213 -0.05705560743808746 0.9653074741363525
0.08446142077445984 0.032664705067873 0.28963300585746765 -0.17146088182926178 0.00018611732230056077 -0.9851909279823303
0.06692507117986679 0.37616661190986633 0.3659541606903076 0.0 0.0 1.0
0.045204855501651764 -0.2729894816875458 0.27281031012535095 -0.0 0.13820266723632812 0.990403950214386
-0.3622199296951294 0.14364023506641388 -0.19397412240505219 -0.9988555908203125 -0.047826800495386124 -1.0231593350340518e-09
-0.3683694303035736 0.4404081106185913 0.2591730058193207 -1.0 -0.0 0.0
-0.2415073662996292 -0.45176923274993896 -0.3369761109352112 -0.0 -0.999771237373352 -0.021389208734035492
0.3096481263637543 0.37132182717323303 0.3655993938446045 0.07413657009601593 0.0 0.997248113155365
0.2231568694114685 0.20436829328536987 -0.21480052173137665 -0.8670051693916321 0.000999375362880528 0.49829810857772827
0.11910181492567062 -0.45306113362312317 -0.008536913432180882 0.0 -1.0 0.0
-0.25444477796554565 0.29208701848983765 0.36605340242385864 0.0 -0.015933046117424965 0.9998730421066284
0.36874333024024963 0.3752741515636444 0.2811115086078644 1.0 -0.0 0.0
-0.29385843873023987 0.5060787796974182 -0.37681660056114197 -0.02730672061443329 0.025085775181651115 -0.9993123412132263
-0.15333257615566254 -0.04069848358631134 -0.24426664412021637 0.5185660719871521 0.22504080832004547 0.8248914480209351
0.042850978672504425 -0.09301052987575531 0.20325593650341034 -0.031521569937467575 0.9965009689331055 -0.07740876078605652
-0.23853108286857605 -0.4519433081150055 -0.19373854994773865 0.0 -1.0 0.0
0.2396063506603241 -0.44873708486557007 -0.05680587515234947 -0.0 -1.0 -0.0
0.37448105216026306 0.17583084106445312 0.3098432123661041 0.9990141987800598 -0.016449877992272377 0.04123208299279213
-0.009976962581276894 0.47050604224205017 0.3722511827945709 -0.0 0.0 1.0
-0.35960662364959717 0.10538578033447266 -0.05250880494713783 -0.998855710029602 -0.047826800495386124 -0.0
0.2629109025001526 -0.38158056139945984 0.3071652948856354 0.013593991287052631 0.4273872971534729 0.9039664268493652
-0.121739961206913 0.38624846935272217 -0.3762843608856201 0.0 0.0 -1.0
-0.0022376705892384052 -0.0914975106716156 -0.1995631456375122 0.03152307868003845 0.9965004920959473 0.07741359621286392
0.3014615476131439 0.18437495827674866 0.0037221075035631657 -0.9874942898750305 0.0014177566627040505 -0.15764828026294708
0.21253372728824615 -0.013361169025301933 0.35220038890838623 0.0 -0.11425178498029709 0.9934518337249756
-0.36937591433525085 0.5213447213172913 0.2540024518966675 -0.9995404481887817 0.030314641073346138 3.3865607540484177e-10
-0.03997804597020149 0.5506238341331482 0.33116236329078674 0.0018113621044903994 0.9996904730796814 -0.024813970550894737
-0.1127130389213562 -0.14734944701194763 -0.3238184452056885 -4.242867390757965e-09 -0.3043060004711151 -0.9525743722915649
0.10725471377372742 -0.2832081913948059 0.2808397710323334 0.0 0.31431445479393005 0.9493188858032227
0.3620131015777588 0.013957304880023003 -0.1328209787607193 0.9934515357017517 -0.11425433307886124 1.081869815955372e-09
0.3744734525680542 0.30431246757507324 -0.23786073923110962 0.999873161315918 -0.01592959091067314 7.779240029925916e-10
0.33667171001434326 -0.4287413954734802 0.0868566632270813 0.9058017134666443 0.42370185256004333 3.9183944977594365e-09
-0.2952290177345276 -0.193156436085701 -0.13189001381397247 -0.7501308917999268 -0.661289393901825 -1.0124260318988831e-09
0.10352573543787003 0.4249337315559387 0.36686739325523376 0.0 -0.0 1.0
0.37027454376220703 0.47683119773864746 0.16255635023117065 1.0 0.0 0.0
0.3728198707103729 0.3886983394622803 -0.15878406167030334 1.0 -0.0 0.0
-0.2617286443710327 -0.334332674741745 -0.29686835408210754 -0.13108213245868683 0.42577922344207764 -0.8952817916870117
0.08466894924640656 0.14075644314289093 -0.2909488081932068 -0.1714196652173996 1.7104321159422398e-05 0.9851980805397034
0.21521103382110596 0.37209978699684143 -0.37684062123298645 0.0 0.0 -1.0
0.23054078221321106 0.4883318841457367 0.36874279379844666 -0.0 0.0 1.0
-0.08939854800701141 0.06387995928525925 -0.2870222330093384 0.17146049439907074 -0.00023279986635316163 0.9851909875869751
0.19064246118068695 -0.4513944685459137 -0.2851032614707947 -1.1368479942153176e-11 -0.9999996423721313 -0.0008951270137913525
0.264680951833725 0.3872905969619751 -0.36892974376678467 0.0 0.0 -1.0
0.27734139561653137 -0.26510027050971985 -0.24152806401252747 0.9892114400863647 0.14191696047782898 -0.03633547201752663
0.014128162525594234 -0.08962264657020569 0.3365978002548218 0.0 -0.30430448055267334 0.9525748491287231
0.22854596376419067 0.5159584283828735 -0.37471431493759155 -4.60221194487076e-10 0.023940173909068108 -0.9997133612632751
-0.3634990453720093 0.2824844717979431 -0.2878810167312622 -0.9995405077934265 -0.01623702608048916 -0.025597114115953445
0.34963586926460266 -0.08211077749729156 -0.33027011156082153 0.9191474318504333 -0.34559497237205505 -0.1890292912721634
-0.3117452561855316 0.2391296625137329 -0.37241268157958984 -0.026880867779254913 -0.01625898666679859 -0.999506413936615
0.04432220757007599 -0.06503239274024963 -0.3527899384498596 3.721167374237666e-09 -0.11425178498029709 -0.9934518337249756
0.29960572719573975 0.5463241338729858 0.2690774202346802 -0.016036173328757286 0.9998525381088257 -0.006146117113530636
-0.2449599951505661 0.4959566593170166 -0.37450695037841797 0.0 0.02506006695330143 -0.9996860027313232
0.3327287435531616 -0.40442049503326416 -0.1728302389383316 0.905809223651886 0.4236856997013092 1.0648083526021423e-09
0.24124687910079956 -0.45213377475738525 0.02570406161248684 0.0 -1.0 -0.0
0.3739505112171173 0.45438000559806824 -0.09641294181346893 1.0 0.0 0.0
0.09346181154251099 0.306436151266098 0.2941572368144989 -0.17132382094860077 0.00018408632604405284 -0.9852148294448853
0.2990906834602356 0.21627624332904816 0.013714221306145191 -0.9874942898750305 0.0014177566627040505 -0.15764828026294708
0.2907845675945282 0.46646133065223694 -0.06261463463306427 -0.987473726272583 0.001329403487034142 0.15777799487113953
-0.27337029576301575 -0.22162483632564545 -0.2214794158935547 -0.9107702374458313 -0.4122545123100281 -0.023319872096180916
-0.3679007589817047 0.31083303689956665 0.04772072657942772 -1.0 -0.0 -0.0
0.32618141174316406 0.5476053357124329 0.10279394686222076 -0.01500207930803299 0.9998865723609924 -0.0012844435404986143
-0.28795117139816284 -0.4544133245944977 0.2721408009529114 -0.0009512992692179978 -0.9999995827674866 -0.0
0.07679334282875061 0.2264556586742401 0.3603789508342743 -3.4953670513537816e-10 -0.015933047980070114 0.9998730421066284
0.03594867140054703 0.37320709228515625 -0.29721516370773315 -0.17132358253002167 -3.3986314520007e-05 0.9852148294448853
0.34894317388534546 -0.4556029438972473 -0.17507562041282654 0.8851567506790161 -0.4652928411960602 -8.046706634345924e-10
0.006837737746536732 -0.1906069666147232 -0.3037336468696594 0.0 -0.6613000631332397 -0.7501214742660522
-0.20611096918582916 0.045859649777412415 0.35719606280326843 0.0 -0.04782571643590927 0.9988556504249573
-0.016549156978726387 -0.106855109333992 -0.008732963353395462 0.022661615163087845 0.9994656443595886 0.02355545572936535
0.3741765320301056 0.20718200504779816 0.29637789726257324 0.9998731017112732 -0.01592959091067314 0.0
0.3731955885887146 0.40823668241500854 0.29109716415405273 1.0 -0.0 0.0
0.2781253457069397 0.32986435294151306 0.11677704006433487 -0.9874860644340515 0.0013610838213935494 -0.15769995748996735
0.32447418570518494 -0.16332456469535828 0.2179269939661026 0.8431954979896545 -0.5376071333885193 0.0
-0.017104443162679672 -0.033041812479496 0.2857014536857605 0.16858451068401337 0.2194042205810547 -0.9609584808349609
0.28423336148262024 0.20305682718753815 -0.10817360877990723 -0.9874861836433411 0.001333126681856811 0.15769974887371063
0.11610756814479828 -0.22638694941997528 -0.2822076678276062 -5.2121045257536025e-09 -0.40572699904441833 -0.913994312286377
-0.08446160703897476 0.08857627958059311 -0.2823379933834076 0.17146049439907074 -0.00023279986635316163 0.9851909875869751
0.3686045706272125 0.1485830545425415 0.028023159131407738 0.9988556504249573 -0.047826800495386124 0.0
0.3420582115650177 0.14714449644088745 0.362621009349823 0.25480595231056213 -0.05705560743808746 0.9653074741363525
-0.25504133105278015 -0.4508165121078491 -0.07925674319267273 0.0 -1.0 0.0
-0.2876494228839874 0.5424469113349915 0.3022376000881195 0.0048312474973499775 0.9998728632926941 -0.015193115919828415
0.3195517957210541 -0.005321332719177008 -0.36182156205177307 0.11477292329072952 -0.1241295114159584 -0.9856058955192566
-0.1295619010925293 0.40811797976493835 0.2694368362426758 0.5305311679840088 -0.0002391809393884614 -0.8476653099060059
-0.30695459246635437 -0.3609285354614258 -0.26290270686149597 -0.91822749376297 0.39535245299339294 -0.02355298213660717
0.04705498367547989 -0.09160056710243225 0.3387100398540497 0.0 -0.30430448055267334 0.9525748491287231
-0.09714329242706299 -0.4472098648548126 0.23984460532665253 0.0 -1.0 0.0
0.3440912961959839 -0.08570946753025055 0.2528766691684723 0.9525741934776306 -0.30430635809898376 0.0
0.3218042552471161 -0.38472551107406616 -0.08204572647809982 0.905809223651886 0.4236856997013092 0.0
-0.36751309037208557 0.3406390845775604 0.2518223524093628 -1.0 -0.0 -0.0
-0.19476822018623352 -0.4518216848373413 0.2870187759399414 1.2051667823420598e-11 -0.9999994039535522 0.0010055776219815016
-0.2346462905406952 -0.07779847085475922 0.10427544265985489 0.6337987184524536 0.7665734887123108 -0.10326745361089706
0.3238573670387268 -0.08910670876502991 -0.35382911562919617 0.35431939363479614 -0.3742832541465759 -0.8569537997245789
-0.3664206564426422 0.281502366065979 -0.30459293723106384 -0.9995407462120056 -0.016240468248724937 -0.02558537758886814
-0.18329159915447235 0.2122853696346283 -0.23063619434833527 0.5308347940444946 -0.00024096682318486273 0.8474752306938171
-0.03446750342845917 0.5474528074264526 0.35524705052375793 0.0 0.96620112657547 0.25778940320014954
0.0584975890815258 0.22805088758468628 0.3674926459789276 0.0 -0.015933046117424965 0.9998730421066284
-0.3657876253128052 0.3565731346607208 -0.12561099231243134 -1.0 -0.0 -0.0
-0.2801753282546997 0.09950479120016098 0.01570531539618969 0.9874953031539917 -3.27679117617663e-05 -0.1576482057571411
0.3442842364311218 -0.4564642906188965 -0.017408927902579308 0.041304536163806915 -0.999146580696106 2.4861555522615042e-11
-0.16574758291244507 0.004549911245703697 0.24733532965183258 0.530996561050415 -9.717424836708233e-05 -0.847373902797699
0.0482863187789917 -0.04905949532985687 0.28074052929878235 -0.16857627034187317 0.21963216364383698 -0.9609078168869019
0.10830961167812347 0.20108450949192047 0.2836644947528839 -0.17137140035629272 0.00018295928020961583 -0.9852064847946167
0.3652457892894745 0.018199611455202103 0.32028454542160034 0.992178201675415 -0.11792571097612381 0.04093654826283455
0.2557394206523895 0.3408162593841553 -0.1743893176317215 -0.8668883442878723 0.0011311222333461046 0.4985010623931885
-0.235104501247406 0.176493838429451 0.3596571683883667 -6.163957122495844e-10 -0.015933047980070114 0.9998731017112732
0.37137240171432495 0.3619685173034668 0.2679802477359772 1.0 0.0 -0.0
-0.26818254590034485 -0.25441256165504456 0.1418217122554779 -0.9904043674468994 0.1381997913122177 -8.603094348025309e-10
-0.3643050193786621 0.4514012336730957 -0.11548101156949997 -1.0 -0.0 0.0
-0.16856662929058075 0.12146606296300888 -0.24061362445354462 0.5308348536491394 -0.000241464760620147 0.8474752306938171
-0.2969628572463989 0.5480082631111145 -0.12605717778205872 0.04236338287591934 0.9990920424461365 0.004527616314589977
0.36170443892478943 0.30679967999458313 -0.35960280895233154 0.7539713382720947 -0.02166963368654251 -0.6565498113632202
0.29733607172966003 0.160496786236763 -0.009842850267887115 -0.9874943494796753 0.0013915851013734937 0.1576482057571411
0.2986776530742645 0.31926867365837097 0.02916872687637806 -0.9874778985977173 0.0014203388709574938 -0.15775112807750702
0.22279617190361023 0.07174898684024811 -0.22195306420326233 -0.5308347344398499 0.0005404086550697684 0.8474751710891724
0.12448778748512268 0.23599138855934143 -0.2853197753429413 -0.17137016355991364 2.184461300203111e-05 0.9852067232131958
-0.21861284971237183 0.2539612352848053 0.18038615584373474 0.866944432258606 -5.819260695716366e-05 -0.4984048902988434
0.37305888533592224 0.46527376770973206 -0.05400106683373451 1.0 0.0 0.0
-0.34082895517349243 -0.4454917311668396 -0.18886712193489075 -0.9330727458000183 0.35968759655952454 0.0
-0.2171880006790161 -0.45936691761016846 -0.0681123286485672 -0.0 -1.0 0.0
-0.049521371722221375 0.2790278196334839 0.28692686557769775 0.1713712513446808 -6.729187589371577e-05 -0.9852064847946167
0.3708344101905823 0.29610517621040344 0.24382539093494415 0.9998731017112732 -0.01592959091067314 0.0
0.007053036242723465 -0.10156793147325516 0.06630941480398178 0.0246062483638525 0.999461829662323 -0.021693561226129532
-0.2620407044887543 0.018659329041838646 -0.1161256954073906 0.9875015616416931 -0.0001069906065822579 0.15760912001132965
-0.019709190353751183 -0.0454094223678112 0.3439486622810364 -3.752446353644245e-09 -0.11425178498029709 0.9934518337249756
-0.03775482624769211 -0.4566856920719147 -0.09235234558582306 -0.0 -1.0 0.0
-0.26523375511169434 0.22068196535110474 0.3664044737815857 0.0 -0.015933046117424965 0.9998730421066284
-0.3690710663795471 0.42823582887649536 -0.13922682404518127 -1.0 -0.0 -0.0
-0.3669743239879608 0.36762890219688416 0.06771928071975708 -1.0 -0.0 -0.0
-0.29398924112319946 -0.45557597279548645 0.27778375148773193 -0.0009512992692179978 -0.9999995827674866 -0.0
0.33807381987571716 -0.11831523478031158 0.26622605323791504 0.9525741934776306 -0.30430635809898376 0.0
0.09812811762094498 0.10697764158248901 0.28783079981803894 -0.1714196652173996 0.00018091265519615263 -0.9851980805397034
-0.1586572378873825 0.19127421081066132 0.3607591688632965 0.0 -0.015933046117424965 0.9998730421066284
-0.3422910273075104 0.23598097264766693 -0.3692426383495331 -0.5099829435348511 -0.021192163228988647 -0.8599234819412231
-0.3582027852535248 0.019388515502214432 -0.08194087445735931 -0.9934515357017517 -0.11425432562828064 -0.0
-0.36837032437324524 0.4088551104068756 -0.021263284608721733 -1.0 0.0 0.0
0.23144912719726562 0.42433810234069824 -0.37941408157348633 0.0 0.0 -1.0
0.0317152701318264 -0.4535110294818878 -0.19502675533294678 0.0 -1.0 -0.0
0.3507758378982544 0.011130660772323608 0.3413065969944 0.5842472314834595 -0.15431031584739685 0.7967706918716431
